# .PCD v0.7 - Point Cloud Data file format
VERSION 0.7
FIELDS x y z
SIZE 4 4 4
TYPE F F F
COUNT 1 1 1
WIDTH 1565
HEIGHT 1
VIEWPOINT 0 0 0 1 0 0 0
POINTS 1565
DATA ascii
1.8333164 -0.22181347 2.2983456
1.826825 -0.21970433 2.295048
1.9093211 -0.20639741 2.3031151
1.8395309 -0.20655303 2.2909055
1.8275952 -0.21178298 2.2887032
1.7817258 -0.18068805 1.7315849
1.8426808 -0.19538935 2.2787752
1.8264742 -0.19745782 2.2789395
1.8478177 -0.18108962 2.2607553
1.6847215 -0.10195926 1.5135331
1.9122701 -0.084316343 1.8430117
1.7707242 -0.078131407 1.6100606
1.5856124 -0.083310068 1.4647593
1.918318 -0.07574439 1.832499
1.763148 -0.047121942 1.5458984
1.7877483 0.016041189 1.5010706
1.9375142 0.069396481 1.6627414
1.9960362 0.096870676 2.1633339
2.0853426 0.1223242 2.1708491
1.9607351 0.10218112 1.7322196
1.9321158 0.11882238 1.616604
1.9920814 0.1340636 1.7378438
1.8515902 0.15162171 1.490446
1.8557594 0.15918055 1.4835941
2.0184841 0.18726881 1.6982321
1.9092329 0.2202476 1.4779631
2.1356418 0.27093861 1.7100059
1.8388749 0.2489454 1.3654147
2.0658071 0.2908459 1.6632689
2.1455636 0.31342426 1.7014989
2.1530347 0.32094437 1.6954342
2.1504269 0.32323736 1.6890067
2.0897381 0.38183087 1.6126415
2.0934291 0.3902145 1.5921066
2.0609584 0.39075151 1.5894715
2.1737168 0.41300246 1.638689
2.1233659 0.40500161 1.5893333
2.1279087 0.41584057 1.5917546
2.1205919 0.41117209 1.5781947
1.9191015 0.39556277 1.3446817
2.1901135 0.43477395 1.6332405
2.1543756 0.45082521 1.6176795
2.0788703 0.45536888 1.4771286
2.1401665 0.46982214 1.5505174
2.2922411 0.50639439 1.7348741
2.2946839 0.51988697 1.7274414
2.2625329 0.59073168 1.6381085
2.1688647 0.58314204 1.5317168
2.1620374 0.58556944 1.527885
1.9789312 0.55058265 1.2999465
2.2594118 0.63270944 1.6225711
2.1314692 0.62153113 1.3549098
2.1993291 0.64062101 1.4285052
2.1901288 0.63936341 1.420251
2.206713 0.6495406 1.4215403
2.1914897 0.64268035 1.4153169
2.2159629 0.7117871 1.614489
1.8240258 0.59238595 1.0888798
2.1968646 0.6732043 1.4164143
2.1826677 0.67343646 1.4077471
2.2590435 0.74139094 1.6506294
2.1936946 0.68251169 1.4124267
2.1393349 0.67440927 1.3521769
1.9976368 0.64984131 1.2352911
1.821698 0.61936224 1.0747385
1.9899969 0.6639477 1.2236681
2.3088408 0.77565861 1.6651653
2.1264071 0.70296693 1.3446825
1.9377749 0.64574975 1.1108205
2.3879442 0.79095936 1.6713171
2.3326986 0.78474605 1.6622784
2.3975682 0.79726118 1.6701043
2.3928325 0.79730284 1.6679695
2.3956239 0.80430722 1.6666276
2.343442 0.80023247 1.6552848
2.3127947 0.80398369 1.6497319
2.1004009 0.73091549 1.3452698
2.0645494 0.73223203 1.3158362
2.3819771 0.81850344 1.6570392
2.2798462 0.82114315 1.6294518
2.1048934 0.74651444 1.3599932
2.409004 0.82066226 1.6544569
2.4092572 0.82766461 1.6541122
2.274425 0.83262396 1.617831
2.1529119 0.83339334 1.5685836
2.0995493 0.79406971 1.3700496
2.0119123 0.76701117 1.2919365
2.0069859 0.76947421 1.2917256
2.425601 0.85499001 1.6391972
2.2131877 0.86700702 1.5863278
2.1549115 0.86298525 1.5578779
2.0078957 0.78712082 1.2955815
1.9132533 0.76570737 1.2020702
1.8622959 0.75042927 1.1492107
2.4268489 0.86557436 1.6320354
2.1715434 0.87321168 1.5625216
1.8713993 0.75899917 1.1528653
2.225338 0.88086224 1.5860434
1.9476563 0.77593243 1.2284466
2.2323649 0.88779217 1.5845766
2.1847098 0.88701093 1.5602374
2.1693125 0.88447279 1.5532932
2.1292627 0.88161629 1.530836
2.1929717 0.89143682 1.5629561
2.1340744 0.88763595 1.529228
2.4352365 0.89188755 1.6223396
2.437089 0.9010402 1.62356
1.9771668 0.83200133 1.2635461
1.9768163 0.8401438 1.2651424
2.4566691 0.95355463 1.6131645
2.4561796 0.96495283 1.6211079
2.1303041 0.94227397 1.3334249
2.181792 1.0076776 1.5004946
2.1669073 1.0032926 1.4863296
2.133358 0.95107454 1.3348906
2.1844847 1.0178587 1.4923754
2.1771293 1.0204015 1.4897279
2.3027909 1.0305378 1.5435178
2.2811823 1.032635 1.5353956
2.2245586 1.0255558 1.5135061
2.2060974 1.0215651 1.5041547
2.2009554 1.0206103 1.4892312
2.1930175 1.0241355 1.4993628
2.1221511 0.96320105 1.3271525
2.2135644 1.0284557 1.4950104
2.2065341 1.0287244 1.4831663
2.1412325 0.96345204 1.3307487
2.2993355 1.0367695 1.5232066
2.2946339 1.0339208 1.5171658
2.2848454 1.0347539 1.5153788
2.1417451 0.97303486 1.3318189
2.3141053 1.0413549 1.5219423
2.305757 1.0399841 1.5086938
2.3018551 1.0391843 1.5136545
2.2571526 1.0276542 1.4696071
2.1576724 0.98226082 1.3367902
2.1421824 0.97735918 1.3297014
2.1388123 0.98297715 1.3291272
2.1347439 0.97808963 1.3286648
2.3211105 1.0468041 1.5168107
2.2343771 1.0189208 1.4375488
2.1654696 0.9864791 1.3343453
2.4520824 1.0711467 1.5702884
2.1875813 1.0082737 1.3377393
2.0399184 1.0160803 1.2989029
2.0331407 1.0138252 1.2933669
2.0222805 1.0087649 1.2846849
2.0082805 1.0026147 1.2707044
2.0007749 1.0010428 1.2662411
1.9884428 0.99872631 1.2577673
2.2630048 1.0456179 1.4192832
2.4782062 1.0919614 1.5721788
2.2923326 1.0582839 1.443272
2.2531633 1.044741 1.4017299
2.2499053 1.0442076 1.3987186
2.3838811 1.0893257 1.5260043
2.3531499 1.0865054 1.4976474
2.1308196 1.0418303 1.3197086
2.0959907 1.0435457 1.31628
2.0800567 1.0463374 1.3149172
2.0740685 1.0483152 1.315215
2.066937 1.0488135 1.3141416
2.0158792 1.0417219 1.2696983
2.011513 1.0343525 1.2585698
2.0039434 1.0351472 1.2565882
2.4264441 1.1336734 1.5365167
2.4385073 1.1409814 1.5377454
2.4119139 1.1381907 1.5269996
2.4454989 1.1914198 1.5349702
2.4403005 1.1890202 1.5309154
2.4344978 1.1896462 1.5290833
2.4236548 1.1850573 1.5213933
2.417973 1.1869369 1.5200559
2.4136755 1.1860218 1.5169785
2.403059 1.1817765 1.512205
2.3987231 1.1835365 1.5092224
2.3927963 1.1801426 1.5073794
2.3894718 1.1820579 1.5032036
2.3803155 1.1827352 1.4950304
2.3749273 1.1769166 1.4922583
2.3685284 1.1752753 1.4865528
2.3630595 1.1737084 1.4794837
2.3576889 1.1725408 1.4728335
2.3502381 1.1695322 1.4664536
2.344276 1.1672679 1.4609084
2.3390157 1.1641653 1.4545065
2.3337333 1.1620821 1.4500418
2.3291051 1.1605971 1.4429395
2.324471 1.15659 1.4381793
2.3165839 1.1529537 1.4287474
2.3118229 1.1510381 1.4232588
2.3080547 1.1476386 1.4172543
2.2989104 1.1420732 1.4071304
2.2944558 1.1407797 1.4011968
2.290179 1.1400669 1.3946896
2.2859926 1.1356769 1.3893458
2.2762258 1.1293437 1.3801253
2.2704246 1.125634 1.378106
2.2666297 1.1259232 1.3719517
2.2620456 1.1241022 1.3641938
2.2567773 1.1231502 1.3598928
2.2506952 1.1206419 1.3540087
2.2400749 1.1145008 1.3410306
2.236238 1.1135427 1.3385094
2.2288678 1.1071246 1.3301779
2.2241557 1.1103685 1.3270422
2.2173414 1.1018785 1.3185625
2.2126899 1.1048121 1.3167835
2.2043927 1.1022604 1.3083941
2.1953821 1.1008542 1.3028566
2.1866238 1.1020405 1.3001286
2.1735964 1.1007483 1.2955683
2.1679511 1.0981427 1.2919827
2.150876 1.0979819 1.2867466
2.1439331 1.0989391 1.2878038
1.9765965 1.0694852 1.1815494
1.9565427 1.0671461 1.1661472
2.4787247 1.2047088 1.5509275
2.4544263 1.1933167 1.5395575
2.4454422 1.1982265 1.5331205
2.4402709 1.1940819 1.5278581
2.4335799 1.1953087 1.5257962
2.423351 1.1906197 1.5221885
2.4171262 1.1923776 1.517116
2.4109607 1.1913123 1.5143731
2.4050267 1.1878936 1.5120248
2.3983064 1.1870284 1.5036792
2.3932185 1.1882774 1.5060519
2.3902142 1.1872463 1.5015303
2.384845 1.1867352 1.4982741
2.3739891 1.1824179 1.4900818
2.3684344 1.1817994 1.4859811
2.3637109 1.1789038 1.4762107
2.3586526 1.1771526 1.4709494
2.3534713 1.1746843 1.4659572
2.344687 1.1734347 1.4588451
2.3397937 1.1697599 1.451908
2.3334036 1.1675472 1.4464349
2.3288624 1.1666567 1.4407153
2.322758 1.1621997 1.432806
2.3180375 1.1588632 1.4273953
2.3112359 1.1566832 1.4208224
2.3060317 1.1549771 1.4119771
2.2981787 1.1464309 1.4050568
2.2946987 1.1467024 1.3976448
2.2901793 1.145844 1.3921516
2.2852039 1.1421582 1.3857441
2.2806261 1.136624 1.3809282
2.2718616 1.1315991 1.3718163
2.2667649 1.1280897 1.3689164
2.2605774 1.1290456 1.3618881
2.2548766 1.1252774 1.3536593
2.2515376 1.1258279 1.3544
2.2455578 1.1232209 1.3467364
2.242924 1.1236501 1.3420007
2.2360284 1.118608 1.3358065
2.2285705 1.1158905 1.3309324
2.2243638 1.114086 1.3212563
2.2197883 1.1148818 1.3189495
2.2112505 1.1128242 1.3137307
2.2043855 1.1075236 1.3084134
2.1998327 1.1069626 1.3054501
2.1969333 1.1041871 1.2998846
2.1907372 1.1070026 1.2980692
2.1857047 1.1080772 1.2984065
2.1675916 1.1049697 1.2890825
2.1619635 1.1034913 1.2878587
2.1549814 1.1040745 1.2828937
1.6279311 -0.35327041 2.0315518
1.6331367 -0.34383619 2.0460048
1.5784718 -0.31024966 1.8469049
1.6393331 -0.3388339 2.0552888
1.6358192 -0.33468845 2.0432851
1.6381557 -0.32837212 2.0536551
1.6952574 -0.2268326 1.6725036
1.7883364 -0.21493278 1.7541102
1.7508872 -0.21581757 1.7283065
1.7143143 -0.2241652 1.755589
1.7348086 -0.20921361 1.7798629
1.6133972 -0.15536574 1.5437417
1.8875388 -0.14188446 1.9136491
1.8683462 -0.12071002 1.9208384
1.7940044 -0.089307785 1.6314547
1.7894204 -0.086334914 1.6264355
1.9137418 -0.097312719 2.2526453
1.8564228 -0.083081752 1.7264534
1.8389597 -0.07650274 1.684603
1.8051267 -0.076532334 1.6590371
1.7987199 -0.082683235 1.6519754
1.9073125 -0.089939952 2.2590714
1.7651746 -0.071018994 1.5980979
1.7477204 -0.068304479 1.5538836
1.9157641 -0.077336133 2.2201316
1.9333752 -0.065137982 2.2260659
1.8064034 -0.055437356 1.6174295
1.8168404 -0.032474101 1.6238109
1.8191618 -0.026130706 1.6209813
1.8159544 -0.02706942 1.604206
1.7971108 -0.027123272 1.5858138
1.7783434 -0.025480479 1.5616512
1.6612209 -0.025506735 1.4591148
1.8245052 -0.01741758 1.6092256
1.819216 -0.016032428 1.5971568
1.8087988 -0.018582433 1.5837823
1.800627 -0.020087987 1.5731853
1.7869573 -0.016761243 1.5689163
1.7840948 -0.0066556036 1.5218865
1.6744198 -0.0036751926 1.4465656
1.9196198 0.015769631 1.6884739
1.8014385 0.020145416 1.5500022
1.9456571 0.020496249 1.7826574
1.8449725 0.025460243 1.6034925
1.7968426 0.025099784 1.5336224
1.8939331 0.03588891 1.6529633
1.8974944 0.054712445 1.6403005
2.0648141 0.067343384 2.2113645
1.9001579 0.060480118 1.6284121
2.0777175 0.075227991 2.2082744
1.94787 0.074188948 1.7783313
1.899009 0.065799057 1.6171445
1.8071264 0.06527549 1.4832566
2.0755334 0.092063993 2.2041802
1.9376367 0.076032162 1.6628113
1.8252537 0.07667464 1.5166916
1.8158104 0.078583956 1.5117947
1.8124082 0.078919619 1.4912513
2.0799458 0.09933649 2.1945841
1.8142247 0.086896867 1.4755973
2.0789382 0.10978244 2.1843619
2.0922217 0.12322654 2.1815102
2.0989387 0.13321432 2.1647844
2.0882957 0.13101794 2.1607161
2.1056473 0.14104104 2.1513457
1.9762301 0.13563165 2.1375096
1.886245 0.12447913 1.5588673
1.8718035 0.12273389 1.5142716
2.0030081 0.14160652 1.7318218
2.0063708 0.14901267 1.7243514
1.8751588 0.1548557 1.5398984
2.018837 0.16628924 1.7122809
2.0241461 0.17649442 1.7079519
2.0290003 0.18714821 1.6990504
2.0228276 0.18198171 1.6993324
2.0244384 0.19016489 1.6947011
2.0949397 0.20776087 1.7318405
2.0879905 0.20766154 1.7323898
2.0821085 0.20904723 1.7356281
1.7320703 0.18575266 1.382262
2.0428231 0.21885987 1.6813477
1.9684299 0.21763743 1.5677365
2.0446854 0.23822249 1.6707926
1.9630049 0.22400042 1.5349081
2.1315429 0.26435745 1.7118107
1.8416314 0.25477856 1.3613391
1.8331389 0.25860786 1.33509
2.1391728 0.29465127 1.7028767
2.1413698 0.30201992 1.7009848
2.0426025 0.31514677 1.6551695
2.1547544 0.33060774 1.6851391
2.0193195 0.34053317 1.6561079
1.9103134 0.30877131 1.398316
2.1558762 0.34785122 1.6777855
2.0045798 0.33680642 1.4714587
2.1612642 0.3622911 1.6717947
1.9137998 0.33508438 1.3666553
2.1075001 0.37957644 1.6428603
2.0888829 0.38054618 1.622583
2.1641638 0.38548207 1.6547022
2.0884423 0.38481644 1.602614
2.1651118 0.39147547 1.6504767
2.0665188 0.38941902 1.590317
2.1739197 0.40462181 1.645287
1.9172183 0.37908903 1.3438436
2.178364 0.41321021 1.6410908
2.1780086 0.43321562 1.6270796
2.1921551 0.44509539 1.6267824
1.7640324 0.39414161 1.1588094
2.2904143 0.47960055 1.7501806
2.2839832 0.49434704 1.7387631
2.2751899 0.49496797 1.7397797
2.2037246 0.47359964 1.6180655
2.1022382 0.46389955 1.5012685
2.2415166 0.49125054 1.6659877
2.2072093 0.48998147 1.6119308
2.3007705 0.51343238 1.7302971
2.3017156 0.52198672 1.7317864
2.2171371 0.5002867 1.6073458
2.2510414 0.51717794 1.6745574
2.2509589 0.5335499 1.6548454
2.030093 0.52490443 1.39964
1.8929398 0.4973062 1.2298768
2.3191538 0.57645357 1.7181683
2.2345092 0.58098882 1.6034125
2.0252793 0.5519281 1.3937883
2.0142026 0.55273217 1.3819882
2.0091391 0.55029225 1.3822004
1.9806502 0.53796166 1.3130772
2.2348745 0.58419472 1.5981219
2.0901957 0.56565809 1.4603381
2.2345486 0.59881824 1.6006173
2.031904 0.56254619 1.3856671
1.9785334 0.54889619 1.3049041
2.0846879 0.58486104 1.462675
2.0465114 0.57695901 1.387303
2.0423403 0.58881605 1.3887084
1.8718379 0.53943962 1.1614909
1.8669032 0.5430057 1.1609806
1.862136 0.54101807 1.1559243
2.0916479 0.60471821 1.4676237
2.0199721 0.5897541 1.368899
1.8793848 0.54842931 1.1562688
2.1615517 0.60411084 1.4693196
1.8914863 0.5496316 1.146841
1.9186716 0.56080908 1.1538163
2.0937552 0.59152371 1.2867939
1.9043015 0.56195199 1.138543
1.7949101 0.56596023 1.0980639
1.8820398 0.5743376 1.1169089
2.1847448 0.64540231 1.410161
2.1885087 0.65493089 1.4099267
1.923085 0.60510594 1.1293249
1.9085759 0.59974182 1.1108584
1.8330532 0.60027355 1.0877423
2.1996863 0.66672838 1.4141533
2.1334527 0.64202952 1.3107511
1.9158782 0.60701275 1.1142441
1.8278301 0.60423595 1.0860958
1.8191071 0.60343599 1.0842069
2.1898816 0.67420876 1.4089769
1.9096613 0.61676782 1.1104232
1.9050435 0.60932952 1.1011752
1.8366129 0.60946202 1.0833918
1.8156787 0.61098212 1.0788145
2.2045383 0.68118531 1.4302208
2.1346033 0.66820377 1.3379517
1.9288117 0.61672604 1.1117712
1.9052453 0.60892296 1.0938652
1.8284332 0.61479431 1.086429
1.8209305 0.61391073 1.0789374
1.8160613 0.61411113 1.0764451
2.2904086 0.75536394 1.6691502
2.2862105 0.75362295 1.6624173
2.2051015 0.68933517 1.4324789
2.1844447 0.68585992 1.4036677
2.0710199 0.65173721 1.262156
2.0241437 0.65856421 1.2516434
2.0179126 0.65660393 1.2471955
1.9974064 0.65779489 1.2330709
1.9487572 0.65155107 1.1970818
1.9286158 0.62570113 1.1185216
1.9182445 0.62462986 1.1114939
1.8313147 0.62483317 1.0810415
2.1812794 0.6920417 1.3989105
2.0919113 0.66365391 1.2695282
2.082135 0.65365732 1.2579553
2.0255537 0.66338795 1.2490472
2.0084128 0.66308469 1.2331289
1.996959 0.6608212 1.2314644
1.9912837 0.66314286 1.229339
1.9368875 0.62685126 1.1071095
1.9267566 0.62375653 1.1055499
1.9168688 0.62568527 1.0993071
1.9033937 0.62367725 1.0913817
1.8381441 0.62903762 1.0792314
2.3586166 0.77064878 1.6756147
2.3517261 0.76794577 1.67476
2.3148134 0.76691139 1.6645814
2.3075974 0.76885349 1.665033
2.3021886 0.7698738 1.6633457
2.2099311 0.70985198 1.4512587
2.1951013 0.70020825 1.418094
2.0755951 0.66864336 1.2639471
2.0252144 0.66940576 1.2470608
2.0209513 0.66603422 1.2406518
2.0162692 0.6658116 1.2375751
2.0033007 0.66483682 1.2309351
1.9946375 0.6643163 1.2252569
1.9340014 0.63116467 1.0988444
1.9244813 0.63684249 1.1065905
1.9176735 0.63494313 1.1030612
1.9174995 0.631154 1.0955279
1.9124293 0.62944657 1.0914525
2.3596544 0.77654642 1.672171
2.3520243 0.7773698 1.670714
2.3358815 0.77687335 1.6699839
2.3301871 0.7733233 1.6642318
2.0348454 0.67765379 1.2447352
2.0268202 0.67389047 1.2449558
2.0129111 0.67431796 1.2351751
2.0098217 0.67323661 1.2335261
1.9352936 0.64306366 1.1078343
1.9192208 0.6372655 1.0981218
2.3699565 0.78276587 1.671432
2.3609357 0.78230143 1.6696882
2.3378253 0.78637612 1.6638452
2.332886 0.77921999 1.6643975
2.3229892 0.7826339 1.6602262
2.0891671 0.68351215 1.2846503
1.9165912 0.64659405 1.097586
2.3719022 0.78866708 1.6682413
2.3426497 0.7891317 1.6615787
2.3334811 0.78971028 1.6583523
2.1059039 0.71078575 1.3390145
2.0855651 0.69135666 1.2835116
2.0771303 0.69114268 1.2822723
2.3768806 0.79533005 1.6634262
2.3444877 0.79595637 1.6562419
2.0286252 0.69578975 1.2424619
2.3770559 0.79937869 1.6625544
2.3028698 0.80876195 1.6462315
2.404109 0.80695021 1.6639798
2.1640499 0.82452446 1.5788656
2.1561522 0.81853604 1.5683354
2.0417883 0.74593759 1.308233
2.0360968 0.74460626 1.3029852
2.1626499 0.82928526 1.5764527
2.1549172 0.83906502 1.574339
2.0233014 0.76282096 1.3061758
2.0147524 0.75918239 1.2980974
2.1565824 0.84211177 1.5724677
2.1010678 0.78752321 1.3713923
2.0751457 0.77820772 1.3467506
2.0470366 0.77256155 1.3237182
2.0062618 0.76576775 1.2945173
2.0033448 0.7625401 1.2882626
1.9977696 0.76231217 1.2818339
1.9914 0.75946259 1.2766635
1.9883597 0.76135617 1.2740278
2.0933459 0.78720188 1.3647319
2.0484037 0.77660167 1.321931
1.9748279 0.767829 1.2638758
2.2387843 0.85997534 1.5958723
2.1353886 0.85304332 1.5537587
2.126368 0.85286695 1.5466057
2.0775568 0.79098403 1.3539305
2.0724649 0.79065371 1.3485883
2.1110275 0.85771191 1.5346022
2.0863614 0.8035301 1.3530171
2.2101181 0.87392765 1.5828012
2.1800447 0.8691138 1.5675105
2.1469231 0.86863232 1.5491539
1.9827089 0.78525996 1.2728719
1.8350707 0.75269568 1.1290317
2.2267401 0.87773323 1.5869645
2.181309 0.87360835 1.5633652
2.1294811 0.87425876 1.5346751
1.9507796 0.78059018 1.2324494
1.9460924 0.78687072 1.233001
2.216254 0.8855387 1.5812634
2.1374218 0.87882572 1.540601
2.1325402 0.87914801 1.5349646
1.9950204 0.79999542 1.2753183
2.2245123 0.89320874 1.5783138
1.9586868 0.80196142 1.2464172
2.1698227 0.89421403 1.5460496
2.1622794 0.89357889 1.5451212
2.1164055 0.88656276 1.512642
2.0372102 0.82664889 1.3157519
2.012269 0.822878 1.293875
1.9953836 0.8214488 1.2790052
1.9897252 0.81283867 1.2700613
1.9696218 0.81130576 1.2535367
1.9641664 0.81009215 1.2502168
2.176631 0.90391541 1.5475198
2.1490357 0.89697659 1.5315794
2.0265284 0.83012867 1.3046327
2.0201044 0.82674444 1.3001677
1.9843574 0.82478338 1.2707077
2.1802588 0.91040927 1.5472381
2.0015411 0.82882965 1.2802049
1.9541638 0.81632072 1.2415169
1.9197538 0.81889462 1.218596
2.4406686 0.90846729 1.6164159
2.009531 0.84130806 1.288995
1.9665711 0.82858181 1.2535535
2.0079246 0.84643936 1.2854668
2.0033898 0.85267121 1.28521
1.9870573 0.84972936 1.2740755
2.0082588 0.8590017 1.2857827
2.1537261 0.96877968 1.4851344
2.1401219 0.96944559 1.471712
2.1583576 0.98306113 1.4886315
2.154707 0.97924662 1.4794064
2.1468546 0.98301673 1.4812227
2.1412506 0.97930288 1.4737972
2.1354904 0.98760611 1.4826055
2.174191 0.99448007 1.4952991
2.1671867 0.99472427 1.4915725
2.1624391 0.98514235 1.4870631
2.1527216 0.98780829 1.4859586
2.0239048 0.92113107 1.2787374
2.1880376 1.001302 1.5020645
2.1823611 0.99687994 1.4991566
2.1737361 0.9976539 1.4912767
2.1661479 0.99764228 1.4887452
2.1601856 0.99220395 1.484395
2.150444 0.99120951 1.4804329
2.2019629 1.0093563 1.5088109
2.1890442 1.0094389 1.5048896
2.1750877 1.0045373 1.4902257
2.2188723 1.0185881 1.5156498
2.213289 1.0161682 1.5128464
2.2012999 1.0165398 1.5058106
2.1901968 1.0139673 1.4999723
2.2293282 1.0256283 1.5163897
2.222635 1.0196261 1.5132649
2.2177815 1.0228033 1.5079157
2.2116485 1.0231452 1.506222
2.1913061 1.021234 1.4982725
2.2322102 1.0269079 1.5151443
2.2248654 1.0273471 1.5077268
2.2079 1.0230341 1.4962008
2.2494552 1.0351917 1.5161345
2.2256906 1.027683 1.4987831
2.2902977 1.037266 1.4993438
2.2358828 1.0255264 1.4599311
2.3108814 1.047287 1.5000383
2.2019589 0.99994981 1.3572364
2.1743894 0.99401999 1.334525
2.3307433 1.0572067 1.5071392
2.3251512 1.0551169 1.5008903
2.3176167 1.0525976 1.4946599
2.2714701 1.0375185 1.4495431
2.3497612 1.0634339 1.5179462
2.3437107 1.0615437 1.513211
2.3370147 1.0588433 1.5068641
2.3308539 1.0583152 1.5008199
2.4350803 1.0808411 1.557983
2.3526099 1.0697122 1.5145832
2.3480628 1.0680788 1.5105219
2.3184886 1.0597095 1.4841989
2.2755349 1.0467478 1.4384229
2.241292 1.0338283 1.399169
2.2336879 1.0291291 1.3896478
2.3815596 1.0832826 1.528471
2.3733082 1.0808544 1.5251781
2.3539424 1.0721089 1.5097657
2.3478143 1.0715382 1.5052513
2.3347356 1.0689156 1.4944963
2.3252654 1.0667651 1.4845469
2.2507501 1.0408235 1.4044278
2.2451415 1.0392491 1.3991089
2.2419071 1.0361536 1.3929837
2.483156 1.0931613 1.5669727
2.4000983 1.0898074 1.5352615
2.3734405 1.0832944 1.5195931
2.3349667 1.0734754 1.4898787
2.3943963 1.093333 1.5311261
2.3702354 1.0877094 1.5147359
2.3596971 1.0848546 1.5069853
2.3475051 1.0846298 1.4937632
2.3948748 1.0993996 1.5278808
2.3866754 1.0974814 1.5230181
2.3815031 1.0961952 1.5209621
2.3624549 1.0909295 1.5048962
2.3808668 1.10067 1.5163362
2.3765166 1.1017357 1.5133612
2.1443663 1.0422221 1.3168305
2.401314 1.1232975 1.5243728
2.3641074 1.1212896 1.4961143
2.0059233 1.0464058 1.244167
2.0004988 1.0479765 1.2434831
1.9937425 1.0486822 1.2380408
1.9829427 1.0416161 1.2234774
2.4174702 1.1342009 1.5310428
2.4309878 1.1396754 1.535831
2.4176798 1.1397054 1.529651
2.3710616 1.1313832 1.4999801
2.3640223 1.1297557 1.4926246
2.375457 1.1406202 1.501789
2.3685946 1.1392388 1.4932388
2.430069 1.155479 1.5331874
2.3867188 1.1546674 1.5043035
2.3758984 1.1519351 1.49726
2.4354844 1.1754408 1.5334395
2.4179883 1.1757685 1.5225284
2.4284351 1.1827397 1.5281988
2.4214993 1.1811259 1.5238525
2.414896 1.1803215 1.5199331
2.3041043 1.1435848 1.4174477
2.2972827 1.1382362 1.4069846
2.2901857 1.1365774 1.3988914
2.2847855 1.1310958 1.3910608
2.2810328 1.1317279 1.3856885
2.2759075 1.1343282 1.3773292
2.4290161 1.1896993 1.5265052
2.4500451 1.2023211 1.534175
2.4224207 1.1937692 1.519998
2.4062164 1.1946366 1.5118458
2.2793899 1.140491 1.3795495
2.2736027 1.1368694 1.3731309
2.2679188 1.133867 1.3673
2.2642598 1.1328682 1.3633697
2.258853 1.1312402 1.359285
2.2504411 1.1274513 1.3502808
2.246433 1.1281154 1.3429469
2.2427001 1.1286933 1.3386059
2.2363904 1.1248957 1.333357
2.224071 1.1184365 1.315203
2.2119193 1.1189878 1.3110187
2.1935496 1.1119711 1.3009154
2.1862297 1.1115371 1.2962146
2.18221 1.1111469 1.293604
2.1753683 1.1117926 1.2922322
2.1691399 1.1101096 1.2871753
2.1620498 1.1094375 1.2847335
2.148483 1.1043313 1.2783597
2.4712999 1.2108023 1.5453373
2.4451597 1.2054055 1.5298156
2.4352164 1.2054944 1.5251179
2.4292307 1.204183 1.522734
2.4231219 1.1984476 1.5201571
2.4152706 1.1965431 1.5148758
2.4123478 1.2027197 1.5133437
2.4070189 1.2003155 1.5102735
2.3920598 1.1966193 1.4993988
2.3838439 1.1960518 1.492021
2.3530622 1.1812708 1.4638076
2.3400021 1.1777803 1.4471064
2.3286695 1.1706781 1.4362563
2.3243384 1.1699924 1.431241
2.3193612 1.1672134 1.4245756
2.3086562 1.1608118 1.4114804
2.3047276 1.16037 1.4072347
2.3003426 1.155372 1.4016961
2.2952046 1.1528401 1.393471
2.2906191 1.151464 1.3879153
2.2853098 1.148174 1.3821834
2.2801564 1.1444975 1.3757991
2.2747245 1.1424539 1.3719332
2.2676058 1.1404757 1.364521
2.2629998 1.1375468 1.3593262
2.2588964 1.1366282 1.3545413
2.2517602 1.1345973 1.3473518
2.2407207 1.130415 1.3328341
2.2376626 1.1293195 1.3351618
2.2250776 1.1267229 1.3185829
2.2188702 1.1203994 1.3152655
2.2067251 1.1216623 1.3061002
2.2024386 1.1195577 1.3032891
2.1870956 1.1183628 1.2939833
2.1830573 1.1182294 1.2892632
2.173398 1.1161314 1.288582
2.167177 1.1135492 1.2849697
2.1649985 1.1134938 1.2788202
2.1609569 1.1121353 1.2816091
2.1547239 1.1108358 1.279508
2.1499135 1.1100852 1.2739284
2.4506066 1.2101799 1.5334908
2.4428627 1.2117319 1.526008
2.4369113 1.2110689 1.5222648
2.4319267 1.2103711 1.5217209
2.4257977 1.2077382 1.5187848
2.4201353 1.207185 1.5134362
2.4100628 1.2058249 1.507763
2.3745327 1.1976321 1.4805526
2.3600957 1.1894352 1.4679559
2.3472996 1.1843808 1.4537768
2.3403411 1.1838199 1.4417124
2.3334188 1.1780082 1.4388041
2.325243 1.1734853 1.4307181
2.3212535 1.1736407 1.423486
2.3119333 1.1656994 1.4157646
2.3069031 1.1669675 1.4060333
2.3020034 1.1630105 1.3995847
2.2962575 1.1592362 1.390028
2.2918649 1.1572802 1.3846656
2.2869005 1.1546043 1.3797553
2.2803495 1.1502479 1.3730648
2.2737894 1.1454144 1.3688451
2.2684941 1.1457143 1.3616475
2.2622609 1.1428413 1.3546128
2.2568502 1.1393872 1.3496373
2.2542434 1.140975 1.3478956
2.2493439 1.137589 1.3421671
2.2433186 1.135725 1.3368638
2.2368431 1.1326839 1.3298702
2.2313871 1.131071 1.3246051
2.2239747 1.1288543 1.3155919
2.2199168 1.1266897 1.3170261
2.2153492 1.1255345 1.3092695
2.2016668 1.1226343 1.3021477
2.1957085 1.1210593 1.2973427
2.1616998 1.1186563 1.2802962
2.1568089 1.1192951 1.2778301
2.4699516 1.2231185 1.545534
2.4637051 1.2226737 1.5422028
2.4486632 1.2190098 1.5300742
2.4419022 1.2175677 1.5245639
2.4342868 1.2181318 1.5196127
2.4290633 1.2135708 1.5189084
2.4235315 1.2139282 1.515736
2.4166207 1.2137109 1.51061
2.4109328 1.2122791 1.506652
2.3736761 1.201558 1.4781489
2.3614385 1.1967599 1.4633725
2.3548007 1.1924815 1.4564847
2.3417716 1.185921 1.443318
2.3346815 1.1835605 1.4346987
2.3252268 1.1788727 1.425504
2.3189783 1.174728 1.4192713
2.3053784 1.1681942 1.3993751
2.292891 1.1629813 1.3823488
2.2879274 1.1592436 1.3772973
2.2794979 1.1527436 1.3709821
2.2777715 1.1554387 1.3664854
2.2696481 1.1507599 1.3600748
2.2637677 1.146708 1.3518332
2.2569861 1.1457144 1.3442935
2.2530773 1.1458956 1.3412278
2.2480614 1.1414959 1.3363451
2.243134 1.1412163 1.3341796
2.2375989 1.1392523 1.3280096
2.2253516 1.1341923 1.315064
2.2188892 1.1336159 1.3115487
2.2114742 1.1284089 1.3048674
2.2011797 1.1283572 1.2989689
2.1970646 1.1273559 1.2940689
2.1827984 1.128381 1.2859361
2.1760833 1.126839 1.2836796
2.1689465 1.1266295 1.2801204
2.1618087 1.1253014 1.2764357
2.1490948 1.1234493 1.2688198
1.4133334 -0.4700155 1.7127067
1.408067 -0.47135952 1.7055218
1.4901195 -0.33477455 1.7650229
1.6146526 -0.31602111 1.9857923
1.6758523 -0.23872337 1.6409016
1.743757 -0.21418887 1.7323301
1.7202914 -0.21559066 1.699302
1.713654 -0.21467602 1.6917671
1.7378132 -0.21383628 1.7020146
1.7309746 -0.20770368 1.6927327
1.7409506 -0.19746816 1.6954046
1.7342443 -0.19058996 1.6899711
1.8712132 -0.18532571 1.932845
1.873491 -0.17952995 1.9165527
1.6884177 -0.16904461 1.6108568
1.6810179 -0.16829687 1.6006529
1.8779832 -0.16925372 1.9050577
1.8524086 -0.16930795 2.2563035
1.8707964 -0.16184412 2.255924
1.6193192 -0.13993889 1.5336938
1.8990681 -0.12255311 2.233902
1.881784 -0.12895018 2.2165196
2.009357 -0.11328799 2.3171742
1.7189956 -0.10626367 1.563521
1.8373173 -0.10207799 1.7035444
1.9179122 -0.088092417 1.8449886
1.7981148 -0.085529208 1.6374344
1.6772102 -0.085889369 1.4960208
1.6700891 -0.084492773 1.4889501
1.9199331 -0.079760253 1.8364549
1.7967219 -0.076951921 1.6436645
1.835146 -0.073065758 1.6745038
1.8285124 -0.073685527 1.6707788
1.8103046 -0.069588631 1.643699
1.8053546 -0.068678349 1.6333894
1.8851681 -0.060702831 1.7424208
1.7247136 -0.058159471 1.5243424
1.8573618 -0.048017055 1.6753284
1.7604643 -0.053601056 1.545279
1.7313026 -0.053781033 1.5264117
1.9328406 -0.045608222 1.8222659
1.7334346 -0.047492534 1.5289832
1.8545215 -0.038517267 1.676657
1.8523152 -0.032478273 1.6602209
1.8346729 -0.032850772 1.6538479
1.8400787 -0.025970072 1.643705
1.8274624 -0.022394389 1.6482612
1.8246396 -0.028730989 1.6326835
1.8731757 -0.022085577 1.6674875
1.7814009 -0.018444717 1.5572085
1.7349424 -0.0077801049 1.4953886
1.8592589 0.0015575588 1.6384236
1.7392228 -0.0050747991 1.5075606
1.9382854 0.023777395 1.7829912
2.0605488 0.050862223 2.2164781
1.7978313 0.034030795 1.5168715
1.7935524 0.033455312 1.5021024
2.0708013 0.060860738 2.2171202
2.0628002 0.058194995 2.2153728
2.0723622 0.071168676 2.2090526
1.9655015 0.065464914 1.773618
1.9585537 0.063798428 1.7733067
2.0843532 0.088531315 2.2051487
1.9592874 0.074712589 1.7700123
1.8206215 0.069542468 1.5186709
2.0861332 0.10032864 2.1924384
1.950264 0.085825905 1.7698061
1.9019895 0.080984145 1.6004789
2.0967016 0.11115016 2.1848643
2.0888538 0.11137711 2.1859491
1.9436274 0.087624431 1.6721789
1.8222022 0.08436808 1.5043373
1.9419791 0.096831769 1.6740098
1.931897 0.10341628 1.6609108
1.9446099 0.10474463 1.6639386
1.78602 0.09847948 1.4473922
1.777859 0.099882305 1.4453765
1.8459861 0.12003911 1.4976003
2.0126579 0.14071587 1.7326277
1.8783362 0.12519336 1.541957
1.8782537 0.13571809 1.5230296
1.8398602 0.13073376 1.4819551
1.9408735 0.16441575 1.5833658
1.8050952 0.15300649 1.4170535
1.9785987 0.17975615 1.6072896
2.0464501 0.18898529 1.7091619
2.0419526 0.19945993 1.6937426
1.9780955 0.19970171 1.604019
2.1118186 0.21236444 1.738086
2.0424194 0.20861809 1.6827387
2.1132228 0.22027364 1.7297674
2.0486181 0.22324768 1.6853808
1.8178501 0.20130199 1.401046
1.7837188 0.1949499 1.3806174
1.7609782 0.19773924 1.3746232
1.7468596 0.19483137 1.3800555
1.7351131 0.19259638 1.3756908
2.0469494 0.22906294 1.6807263
1.823836 0.20676872 1.3903973
1.7331297 0.19859615 1.3486822
2.125191 0.23872393 1.723707
2.1255198 0.24857131 1.7169366
2.0680289 0.24509758 1.6866339
2.1271725 0.25621986 1.7128189
2.0565422 0.29431403 1.657168
2.0249312 0.29420018 1.6551366
2.0157475 0.28373495 1.5468558
2.0151966 0.2912589 1.548821
2.0744591 0.31260774 1.6629241
2.0468514 0.31060201 1.6524824
1.7436974 0.27428621 1.2137104
1.7463576 0.28123793 1.2101938
2.1603899 0.33635703 1.6873972
1.8444135 0.29527646 1.2967073
1.7490299 0.28754491 1.2051805
1.7424952 0.2884331 1.2018272
1.7358304 0.2876702 1.1998601
1.7304087 0.28485793 1.1983657
2.1621127 0.34890112 1.6807905
1.7522683 0.29287601 1.2003245
1.7450374 0.29426253 1.1992168
1.7392555 0.29410493 1.1972919
1.731885 0.29111135 1.1950734
2.1616347 0.35485953 1.6761912
2.0261395 0.33938718 1.5325116
1.753275 0.29813114 1.1993039
1.7459321 0.29864949 1.1950302
1.7389208 0.29993218 1.1941837
1.73603 0.29530618 1.1894383
2.1680465 0.36484921 1.670415
1.7558783 0.30222788 1.1952178
1.750782 0.30119002 1.1912973
1.744205 0.30267808 1.1902609
1.7338365 0.30106196 1.1916844
2.031297 0.35558116 1.5276504
1.7584665 0.31039536 1.1902789
2.1728575 0.37735006 1.6651125
2.1667678 0.37633601 1.6624547
2.0956559 0.3811146 1.6230103
2.0368769 0.3634114 1.5242879
2.0305629 0.36234272 1.5216889
1.7405403 0.31875783 1.180662
2.0446441 0.36372733 1.5015067
2.0945716 0.38645548 1.6005664
2.0697813 0.39089358 1.5892558
2.0467286 0.37272918 1.4902203
2.1054146 0.40350789 1.5711015
2.1845028 0.41686112 1.6400963
1.766942 0.35756114 1.174262
1.7607651 0.3570233 1.1704243
1.7545888 0.35690236 1.1689187
2.1861176 0.42695001 1.6356488
2.182065 0.4290162 1.6320375
2.1963413 0.4348208 1.6346916
2.1210411 0.42775467 1.5458587
2.1986284 0.44516128 1.6267323
2.2051599 0.4510707 1.6256462
2.2001092 0.45138589 1.6229097
2.2062941 0.45869112 1.6246353
2.2016628 0.45901614 1.6220142
2.1892526 0.45769012 1.6178261
2.1367598 0.44894758 1.5557868
2.1071465 0.44668832 1.5154539
1.7235531 0.3976621 1.1588366
1.720659 0.40289801 1.1552552
2.2043204 0.46738374 1.6224598
1.7213582 0.41019431 1.1570072
1.7156583 0.40895855 1.1531361
1.7102062 0.40848881 1.1498803
2.2156 0.47433043 1.6212378
2.2096634 0.4749245 1.6176666
2.1025114 0.4571901 1.5060565
1.7211131 0.41360649 1.1524734
1.7132586 0.41605562 1.1514437
1.7089756 0.41535598 1.1470672
1.7190695 0.41740599 1.1472142
1.7133248 0.42155525 1.1453053
1.7054349 0.42056149 1.1439588
2.3001473 0.50619423 1.7332101
2.2173834 0.48944145 1.6158959
2.213726 0.48985669 1.610857
2.0813329 0.46950507 1.4727104
1.7270194 0.42599285 1.1469656
1.7201427 0.42724031 1.1458201
1.7143054 0.42718118 1.1421334
1.7076752 0.42482477 1.1408626
1.6998141 0.42693996 1.1385394
1.8952057 0.44665602 1.261646
1.8894659 0.44478568 1.2448928
1.7274216 0.43097824 1.1512767
1.7251345 0.43162504 1.1435291
1.719728 0.43621683 1.1419166
1.7144122 0.43505102 1.1388375
1.7083049 0.43606257 1.1367152
1.7077091 0.43111438 1.1398047
1.6994784 0.43306136 1.1363688
2.3081827 0.52784872 1.7361453
2.2182329 0.5075168 1.6071126
1.8939902 0.45602721 1.2698743
1.7308294 0.43606344 1.1467899
1.7281973 0.44045049 1.141871
1.7209976 0.44188142 1.1400192
1.7149389 0.44179031 1.137756
1.7091001 0.44195068 1.1348814
1.7013806 0.44149071 1.1352186
1.6979942 0.43791538 1.1339085
2.3106036 0.53262192 1.7285373
2.2257748 0.51526076 1.609993
2.2203195 0.51418692 1.6063027
2.1507454 0.49517527 1.5268074
1.7325438 0.44311395 1.1436867
1.7283968 0.44488889 1.1394985
1.7221291 0.4471066 1.1373644
1.7162282 0.44811609 1.1348606
1.7091725 0.44841647 1.1344702
1.7032801 0.44761404 1.1320547
1.6996162 0.44504762 1.1288369
1.6928617 0.44774017 1.1286719
2.3071887 0.54166007 1.7294346
1.88746 0.47045308 1.2542733
1.7326899 0.45235354 1.1419741
1.7299752 0.4531197 1.1362785
1.7241961 0.45177132 1.1334125
1.7168108 0.45337811 1.1329783
1.711275 0.45216393 1.1292974
1.7044948 0.45231044 1.1282662
1.6979717 0.453058 1.1264207
1.6914082 0.45239872 1.124758
2.3143539 0.55264175 1.7443424
1.8955982 0.47825652 1.2642964
1.8891487 0.47209024 1.2444183
1.735193 0.45874524 1.1401995
1.7316115 0.45821065 1.1349669
1.7249405 0.45869213 1.1334305
1.7188083 0.45827973 1.1309909
1.711998 0.45827293 1.1286302
1.7048374 0.45754063 1.1260791
1.6980541 0.45878983 1.1239362
1.6910808 0.45693368 1.1218323
2.3223054 0.55519044 1.723263
1.73366 0.46211785 1.1317654
1.7265887 0.46420193 1.1311989
1.7203473 0.46283799 1.1284735
1.7138488 0.46348271 1.1262542
1.7071218 0.46239907 1.1259352
1.704201 0.46333888 1.1216402
1.6972849 0.46346462 1.1214809
2.0983667 0.52073228 1.4711323
1.9004011 0.49419647 1.2689993
1.8937029 0.48655739 1.2596982
1.7414372 0.46969813 1.1326491
1.7314477 0.46896741 1.1328301
1.7265579 0.46971422 1.1284006
1.7184725 0.46948636 1.1284634
1.7134798 0.47159719 1.1223781
1.709954 0.46723503 1.1241996
1.7059975 0.46983296 1.1206176
1.6993072 0.47244331 1.1185462
1.6931005 0.47174615 1.116024
1.9025593 0.49745011 1.2693565
1.742155 0.47639316 1.1300439
1.7362819 0.47903961 1.1290499
1.7300918 0.47880036 1.127362
1.7204627 0.47887403 1.1218808
1.7197598 0.47359169 1.1247096
1.714007 0.47797939 1.1201421
1.7074492 0.47902471 1.1178697
1.7001555 0.47810066 1.1163496
1.6939276 0.47771966 1.1136259
1.7362686 0.48427355 1.1256723
1.7276697 0.48394185 1.1230298
1.726843 0.47973889 1.123042
1.7220469 0.48432118 1.1194876
1.7148488 0.48401845 1.1177074
1.7074928 0.48440158 1.1159656
1.7006549 0.48365909 1.1136787
1.6937919 0.4839676 1.1120604
2.2364769 0.56851977 1.6025243
2.2314777 0.56940937 1.5986915
1.9051358 0.51320636 1.2690666
1.8886638 0.502801 1.2255037
1.7426751 0.49012083 1.1264796
1.7349272 0.49006793 1.1214417
1.7323916 0.4861989 1.122499
1.7287054 0.490159 1.1195827
1.7223057 0.48948419 1.1177137
1.7151814 0.48974729 1.1156648
1.7081169 0.48968828 1.1136509
1.7009106 0.4899106 1.1127216
1.6938024 0.49010429 1.110738
1.7444777 0.49708501 1.1234527
1.7402468 0.49104744 1.1222377
1.7365472 0.49610066 1.1204668
1.7298343 0.49578691 1.1177108
1.7221956 0.49538419 1.1168344
1.7157264 0.49551576 1.1142411
1.7090998 0.49498135 1.1125842
1.7025261 0.49498707 1.110914
1.6972367 0.49416769 1.1071551
2.0647058 0.55829924 1.440119
1.9077362 0.52691978 1.2664951
1.7411938 0.50153095 1.1211053
1.7364542 0.50190121 1.1177686
1.7307198 0.50119257 1.1159223
1.7237958 0.50010067 1.113766
1.716821 0.50129449 1.1120343
1.710662 0.49896958 1.1082361
1.7033809 0.49904904 1.1066284
2.2682524 0.59364092 1.6404124
2.1875095 0.59223443 1.5882235
1.742498 0.50591147 1.116693
1.7370815 0.50736749 1.1154535
1.7315619 0.50760293 1.1127725
1.7236707 0.50856096 1.1112386
1.7172393 0.51041114 1.1088035
1.7109903 0.50969291 1.10631
1.7052593 0.51092994 1.1042992
2.2440579 0.60174799 1.6078856
1.7466283 0.51425958 1.1157892
1.7393034 0.51294535 1.1137177
1.7330809 0.51269549 1.1110684
1.7268635 0.51251364 1.1090213
1.7203786 0.5147301 1.1068692
1.7131488 0.51482654 1.1048948
1.7068512 0.51654553 1.1018692
1.7012464 0.51449484 1.0995293
2.2427921 0.60592926 1.603935
1.9230188 0.54410064 1.2699726
1.883954 0.52490401 1.1869181
1.8768959 0.52475262 1.1816055
1.7985868 0.51418287 1.1239684
1.7464297 0.51943046 1.1129141
1.7394552 0.51922882 1.1113988
1.7335006 0.51846761 1.1086819
1.7269076 0.51883328 1.1070293
1.7209297 0.51935536 1.1045555
1.7145106 0.51953804 1.102319
1.7071965 0.52151728 1.1007049
1.699903 0.52141547 1.0988114
2.2444332 0.61293256 1.608364
2.1444802 0.59050143 1.4999864
2.1022186 0.5937711 1.4719944
1.7465936 0.52549708 1.1117918
1.7399573 0.52546573 1.11007
1.7341264 0.52449304 1.1069754
1.7281871 0.5255329 1.1055411
1.7219027 0.52546972 1.1037139
1.7149969 0.52641922 1.1016043
1.7085692 0.52631968 1.0983481
1.701071 0.52599061 1.0965891
2.2437503 0.62854922 1.6099492
2.1000881 0.59889555 1.4698497
1.8649974 0.53606039 1.15819
1.7464538 0.53221637 1.1110182
1.7419246 0.53146011 1.1070095
1.735379 0.53044748 1.1074455
1.7300273 0.53143078 1.1036785
1.723261 0.53159249 1.1004616
1.716467 0.53220427 1.0985502
1.7094957 0.53231919 1.0962753
2.1213212 0.60891855 1.4901366
1.8826084 0.54283327 1.1670228
1.7533001 0.53913021 1.1078012
1.7469962 0.53633475 1.1087157
1.7432591 0.5377413 1.1042125
1.7360688 0.53469384 1.1045089
1.7277353 0.53552604 1.1005626
1.722978 0.53890592 1.0983279
1.7166454 0.53872687 1.0967193
1.7097344 0.53835034 1.0948377
1.8976282 0.54450542 1.1623691
1.8658835 0.54363745 1.146997
1.7296816 0.54107201 1.098509
1.7253016 0.54548568 1.0965545
1.7180092 0.5450142 1.0949165
1.7115841 0.54365867 1.093678
1.9477359 0.57480824 1.2610662
1.8812588 0.55405694 1.1502658
1.8746165 0.54977399 1.1413424
1.8696795 0.54723072 1.1392368
1.7574074 0.55160499 1.1049013
1.7529886 0.54859 1.1014681
1.7446592 0.54712605 1.1001649
1.7367034 0.54448378 1.1012701
1.7316568 0.55122155 1.0954913
1.7255013 0.55135614 1.0945046
1.7187526 0.55065954 1.0931373
1.712762 0.54902279 1.0904013
1.7567436 0.55553782 1.1012442
1.7502189 0.55628532 1.1023704
1.7473199 0.55348635 1.0988718
1.7404444 0.5548861 1.0974871
1.7339005 0.5573858 1.0943652
1.726795 0.55741954 1.092761
1.7195829 0.55659091 1.0911459
1.7135684 0.55529529 1.0895824
2.2081559 0.6697709 1.6007756
2.1985183 0.62184775 1.4513036
2.170903 0.62071973 1.4267638
1.9001566 0.55890429 1.1396312
1.7602781 0.56286174 1.0995235
1.7537793 0.55943775 1.09863
1.7463523 0.56021702 1.0955573
1.7412357 0.5620752 1.0953084
1.7344103 0.56369382 1.09373
1.7271655 0.56364745 1.0909005
1.7219632 0.56204343 1.0887936
1.7147291 0.56281728 1.08821
1.7621629 0.5688169 1.098526
1.7542456 0.56973684 1.0966861
1.7493064 0.56847429 1.0946339
1.7426234 0.56545347 1.0932435
1.7358793 0.57015175 1.0925322
1.7315644 0.56597841 1.0884091
1.7217801 0.5700348 1.0871667
1.7143003 0.56975138 1.0858347
2.2019346 0.63870454 1.4546236
1.763711 0.5753628 1.095271
1.7561427 0.57395273 1.094142
1.749637 0.57426411 1.0925087
1.7410655 0.5718078 1.0923681
1.7413422 0.57442677 1.0891179
1.7306377 0.57393438 1.0868522
1.7239876 0.57553577 1.0859193
1.7180974 0.57381856 1.0833348
2.1957119 0.64083254 1.4401696
2.1342826 0.62541258 1.3626962
1.7606193 0.58006155 1.0949954
1.7559595 0.57797235 1.0936465
1.7512482 0.58000118 1.0912359
1.7433953 0.57929653 1.0908121
1.7383972 0.5796594 1.0868527
1.7319224 0.57937694 1.0849816
1.7253251 0.57994866 1.0835043
1.718065 0.57923001 1.0821617
1.7080483 0.57957649 1.0797989
2.2397413 0.70467842 1.6251881
2.2010863 0.6427809 1.421515
1.9269069 0.58883804 1.1278093
1.7649602 0.58403999 1.0938199
1.7574192 0.58371168 1.0921295
1.7521327 0.58668494 1.0896558
1.7458597 0.58392537 1.0884821
1.7377572 0.58563232 1.0869541
1.7311544 0.58314091 1.0827391
1.723772 0.58514369 1.082073
1.7180519 0.58455491 1.0795496
2.205585 0.65471613 1.4213667
1.9287887 0.59399688 1.1335942
1.9269208 0.59439462 1.1291578
1.9208579 0.59626573 1.1278931
1.7638305 0.58951944 1.0907638
1.7581463 0.59182847 1.090402
1.7514935 0.59191203 1.0859708
1.7440022 0.59015548 1.0857298
1.737663 0.59189248 1.0844939
1.7334387 0.59087294 1.0808408
1.7237659 0.5891068 1.0789109
1.7181239 0.59208399 1.0789284
1.7596257 0.59685969 1.0879169
1.753222 0.5971396 1.0863658
1.7457267 0.59721243 1.0845673
1.7383496 0.59686196 1.0831506
1.7314849 0.5972681 1.0808396
1.7237126 0.59618181 1.0781034
1.723693 0.59999335 1.0753007
1.7167263 0.60072732 1.0729954
2.1438203 0.65285158 1.3421612
1.7627678 0.60312986 1.0858347
1.7538389 0.60315871 1.0844148
1.7476352 0.60201448 1.0806699
1.7403787 0.60315138 1.079893
1.7336516 0.60356313 1.0785879
1.7240139 0.60461211 1.0746902
2.1961122 0.67548984 1.4159672
1.7710961 0.60845053 1.0857085
1.7594707 0.60967332 1.0817211
1.7573572 0.60547507 1.0839181
1.7534888 0.60769999 1.0807117
1.7415241 0.60959429 1.0771825
1.7364403 0.605551 1.0746403
1.7318121 0.60920197 1.07417
1.7249998 0.60989702 1.0736368
1.7183828 0.60891461 1.0712972
2.2124958 0.69159555 1.446483
2.142931 0.66308701 1.3448367
1.9527423 0.64523822 1.209415
1.7753571 0.62166369 1.0849137
1.7688116 0.613478 1.0838151
1.7629879 0.6123929 1.0835956
1.754688 0.61336827 1.0816575
1.7503701 0.61248118 1.078089
1.7434337 0.61279291 1.0763736
1.7365987 0.61413276 1.0730518
1.7303345 0.61448169 1.0724469
1.7245589 0.61392617 1.0702668
1.7192502 0.6125471 1.0689275
2.1997616 0.69369006 1.4300745
2.1796758 0.68099368 1.399022
2.1427405 0.6763736 1.3608878
2.1369071 0.66277891 1.3332316
2.1258547 0.65084869 1.2927501
1.9919714 0.65176272 1.2305537
1.7698956 0.620094 1.0808126
1.7628132 0.62044972 1.079432
1.7553244 0.61815536 1.0797994
1.7421216 0.61927491 1.0745664
1.7376224 0.61974198 1.0715299
1.7320732 0.61891395 1.0714636
1.7262899 0.61940831 1.069945
1.7193969 0.62024862 1.0657746
2.2055569 0.70872164 1.4535633
2.1845403 0.69284821 1.4001495
2.1779375 0.69439328 1.4015492
2.1457629 0.6954633 1.3837109
2.1388297 0.68702018 1.3632302
1.987085 0.65796518 1.2230817
1.9114747 0.62349451 1.1022791
1.7773935 0.62676865 1.0798609
1.7721596 0.62789273 1.0787426
1.7632146 0.62626499 1.0790339
1.7590109 0.62624061 1.0763873
1.7505245 0.62336212 1.0750722
1.7369945 0.62737632 1.0698121
1.7299098 0.62738752 1.0679787
1.7250038 0.62805527 1.0650491
1.7188975 0.62659252 1.0644429
2.2066121 0.77259988 1.6170198
2.1017795 0.66802049 1.2775791
1.7725531 0.63334686 1.0782877
1.7653149 0.63413733 1.0746398
1.7581892 0.63394523 1.075085
1.7521563 0.63416678 1.0715847
1.7461528 0.6315307 1.0709672
1.7370098 0.63347048 1.0681002
1.7332448 0.63113892 1.0665901
1.7273804 0.63347864 1.0651151
1.7188047 0.63172901 1.0629061
1.8344491 0.63325715 1.0785255
1.7739797 0.64071691 1.0751696
1.766875 0.64004588 1.0759572
1.7600596 0.63954031 1.0730282
1.7535509 0.63880908 1.0710161
1.7471651 0.6390866 1.068321
1.7405406 0.63960946 1.0654317
1.7332675 0.63978755 1.0633035
1.7274361 0.63984537 1.0640198
1.7223908 0.64028478 1.0607076
1.7725282 0.64563012 1.0749258
1.7656366 0.64750755 1.0749607
1.7626761 0.6437341 1.0709766
1.755483 0.64482409 1.0687976
1.7465926 0.64735156 1.0664665
1.7421572 0.6456719 1.0649772
1.7353922 0.64448744 1.0640641
1.7285709 0.64663136 1.0626957
1.7209147 0.64604777 1.0599281
2.0920222 0.69897777 1.3027902
1.7737359 0.65245414 1.0725738
1.7658943 0.65670359 1.0707438
1.7628462 0.65212119 1.069482
1.7573061 0.65068382 1.0672634
1.7486563 0.65220505 1.0647186
1.7414382 0.65212274 1.0632054
1.7339716 0.65264076 1.0626833
1.7283843 0.65270305 1.0598309
1.7220117 0.6512599 1.0579689
2.097271 0.72056687 1.3324641
2.0790236 0.71105731 1.3106
2.0755095 0.71147066 1.3013117
1.9957839 0.69227779 1.2172189
1.9872267 0.68503112 1.2068608
1.9812359 0.68794501 1.2066791
1.7723336 0.66325879 1.0713754
1.7593266 0.66127789 1.0674244
1.7559172 0.65762347 1.0667436
1.7499821 0.65874845 1.0657684
1.7437537 0.65780342 1.0645301
1.722062 0.65741146 1.0568347
1.9990097 0.69631112 1.2165619
1.78098 0.66664499 1.0730909
1.7755184 0.66829532 1.0721943
1.7570738 0.66494668 1.0666295
1.7515193 0.66266435 1.0626429
1.7436169 0.6658811 1.0615631
1.7363868 0.66544735 1.0599381
1.7297642 0.66541839 1.0582392
1.7228123 0.66541696 1.0562828
2.1714911 0.81484801 1.5822388
2.0021455 0.70038807 1.2212346
1.9722079 0.69638765 1.1987615
1.7741197 0.67245847 1.0702401
1.7554959 0.67038554 1.0644095
1.7514113 0.67191875 1.0627885
1.7448018 0.67115021 1.0613568
1.7366687 0.6706785 1.0584304
1.729358 0.67262393 1.057326
1.7255586 0.67596942 1.0541047
1.7187071 0.67444754 1.0525699
2.2777429 0.82419068 1.6248485
2.0385325 0.73676276 1.300625
2.0306995 0.74225295 1.2989341
2.0191844 0.72989696 1.2722005
1.9566851 0.70429456 1.1913493
1.8257104 0.66836804 1.0695717
1.8252478 0.66983944 1.0660889
1.7723759 0.68207252 1.0710585
1.7595204 0.67899078 1.0690436
1.7567365 0.67673087 1.0624932
1.7503605 0.67991978 1.0620649
1.7440292 0.67803705 1.0596986
1.7315699 0.68242449 1.0565839
1.7132976 0.68066418 1.0534869
2.0747056 0.7512337 1.3404126
1.8356501 0.6748721 1.0684657
1.7787914 0.689816 1.0710136
1.7639817 0.68525445 1.0658057
1.7581992 0.68442708 1.0635753
1.7510303 0.68503076 1.0611756
1.7442504 0.68778265 1.060532
1.7377129 0.68574721 1.060146
1.7287478 0.68609136 1.0550816
1.7223967 0.68922228 1.0531299
1.7163873 0.68476278 1.0505006
2.4171596 0.83337164 1.6514504
2.3826466 0.83402908 1.6412773
2.1588864 0.83641231 1.5767028
2.1035635 0.77400416 1.381194
2.0399373 0.75931001 1.3178718
2.0066571 0.75652206 1.2944829
2.0010383 0.75216436 1.2846682
1.7777631 0.69541293 1.0709207
1.7705444 0.69121009 1.0706358
1.763428 0.69608331 1.067323
1.7567405 0.69098842 1.06497
1.7513745 0.69156438 1.0633446
1.7444562 0.69307142 1.0598679
1.7373571 0.69359744 1.0586723
1.7331494 0.69450849 1.0559711
2.4211168 0.84229368 1.6502125
2.0606465 0.7678014 1.3334361
2.0049889 0.75974858 1.2915797
1.9973924 0.75718653 1.2838727
1.9412584 0.74345058 1.2258329
1.8399318 0.68369746 1.0661339
1.7755241 0.70469624 1.0731236
1.7707385 0.69331688 1.0673823
1.7626176 0.70196104 1.0678374
1.7571712 0.70083898 1.0683981
1.750414 0.70228988 1.0629367
1.744742 0.69956839 1.0615909
1.7384866 0.70015234 1.0584853
1.7346015 0.69926256 1.0552197
1.725539 0.69896168 1.0526618
2.4215627 0.84761906 1.6436626
2.350132 0.8522172 1.6299608
2.3469467 0.85182965 1.6265177
2.3314524 0.849213 1.6252929
2.1629903 0.85287356 1.5727385
2.1526282 0.84683341 1.5673894
2.1396916 0.84706318 1.5618961
2.1051619 0.78951937 1.3794823
2.0943158 0.77900338 1.3613778
2.0869315 0.78415114 1.3572602
2.0276833 0.76699746 1.3064859
1.9724265 0.7526986 1.2581791
1.9659184 0.75547975 1.2531439
1.9589617 0.75353163 1.2453221
1.9574391 0.74594223 1.2420603
1.9481975 0.74499929 1.2319337
1.9440339 0.75391436 1.2333252
1.9317893 0.74697793 1.2230475
1.9287546 0.74103564 1.214367
1.9237851 0.7410503 1.2075087
1.9181007 0.74263138 1.2058942
1.7804558 0.7153284 1.0783484
1.771395 0.71071744 1.0749539
1.7662858 0.70998663 1.0704415
1.7494812 0.70886517 1.0641836
1.7421293 0.70567173 1.0628619
1.7349616 0.7083391 1.0581944
1.7197297 0.70520139 1.0518575
1.7142992 0.7081899 1.0501553
2.3638599 0.85997808 1.6296935
2.1926439 0.86109483 1.5824021
1.9791914 0.76332623 1.2655892
1.9738708 0.76226068 1.2627805
1.9688506 0.7647047 1.2587271
1.9634888 0.76159453 1.2534099
1.9598382 0.76149219 1.2472994
1.9553435 0.75695062 1.2421163
1.9489785 0.75763637 1.241689
1.9386129 0.75865406 1.2253139
1.9342895 0.75189441 1.2223635
1.9265409 0.75198174 1.21834
1.9218559 0.75465959 1.2139984
1.9124629 0.74626625 1.1987844
1.9046907 0.74984241 1.195706
1.7818849 0.72114229 1.0825434
1.7722309 0.72183013 1.0785832
1.7677469 0.71597314 1.0721036
1.753893 0.71397161 1.0673531
1.7422186 0.71559918 1.0623845
1.73533 0.71462834 1.0604709
1.7199435 0.71301234 1.0528194
2.4389558 0.85073751 1.6214579
2.1348922 0.8624211 1.5490413
2.1263738 0.85575026 1.5431077
2.0881557 0.78922957 1.3548837
2.0812051 0.79348564 1.3555485
2.0641322 0.79056448 1.338551
2.0561028 0.7865274 1.3318458
2.0421407 0.78524703 1.3222216
2.0402198 0.78064954 1.3166556
1.9648641 0.76395619 1.2488774
1.9557588 0.76279718 1.2425634
1.940675 0.76254773 1.2279928
1.9287144 0.75831127 1.2161092
1.9185621 0.75171155 1.2034682
1.7751131 0.7277112 1.081629
1.7337697 0.71677911 1.0574753
2.432106 0.86416101 1.6295437
2.2677903 0.87351793 1.5910805
2.1343701 0.86616677 1.5438352
2.1286063 0.86790216 1.5393578
2.0939169 0.80289501 1.3651004
2.0888472 0.80449158 1.3561519
2.0851169 0.79874313 1.3511511
2.0788012 0.80138862 1.3477417
2.0658357 0.79746413 1.3386939
2.0574334 0.79767096 1.3326862
2.0319886 0.79050946 1.3125315
2.0222232 0.78824067 1.3018515
2.0121908 0.78807127 1.299578
1.9924862 0.78465015 1.2821797
1.9769526 0.77868986 1.2613648
1.9678104 0.7774989 1.2537689
1.9650173 0.77329731 1.2492423
1.9467682 0.77088499 1.2327149
1.9349387 0.76529527 1.2184769
1.7934645 0.73683751 1.0961144
1.7871506 0.73307163 1.0896331
