# .PCD v0.7 - Point Cloud Data file format
VERSION 0.7
FIELDS x y z rgba
SIZE 4 4 4 4
TYPE F F F U
COUNT 1 1 1 1
WIDTH 1319
HEIGHT 1
VIEWPOINT 0 0 0 1 0 0 0
POINTS 1319
DATA ascii
2.4522929 0.073191516 0.055022918 0
2.4528787 0.073743939 0.054422751 0
2.4535022 0.074351728 0.053922463 0
2.4541407 0.074994378 0.053519793 0
2.4548249 0.075648457 0.053097554 0
2.4554284 0.076229066 0.052548863 0
2.4559453 0.076700047 0.051759537 0
2.4564302 0.077140257 0.050926808 0
2.4568932 0.077549502 0.050022133 0
2.4575124 0.078151017 0.049525481 0
2.4582005 0.078834854 0.049197204 0
2.4589126 0.079555497 0.048938345 0
2.4595551 0.080185935 0.048491992 0
2.46014 0.080740273 0.047887456 0
2.4606614 0.081215724 0.047102138 0
2.4611714 0.081690975 0.04634941 0
2.4616928 0.082164012 0.045559198 0
2.462177 0.082605742 0.044729702 0
2.4626734 0.08305908 0.043914743 0
2.4631982 0.083546691 0.043183059 0
2.4637337 0.084045939 0.042465869 0
2.464256 0.084528573 0.041728627 0
2.4647677 0.084995531 0.040934972 0
2.4652689 0.085451916 0.040127993 0
2.4657495 0.085882097 0.039295826 0
2.4662089 0.086285166 0.038328134 0
2.4666233 0.086636923 0.037374895 0
2.4670415 0.086976878 0.036279675 0
2.4675198 0.087401152 0.035434809 0
2.4679806 0.087798417 0.034506679 0
2.4683936 0.088134363 0.03347091 0
2.3713696 0.10375106 -0.0032139807 0
2.3528419 0.048264343 0.045951765 0
2.4543867 0.095277987 0.036654707 0
2.4661427 0.094331533 0.010346394 0
2.3672383 0.017912704 0.035473678 0
2.3628116 0.0067652911 0.019051988 0
2.3767788 0.047508784 0.034933906 0
2.3672547 0.040469278 0.044567145 0
2.3731949 0.031913642 0.039781749 0
2.3592751 0.085856535 0.00815624 0
2.4546413 0.091915555 0.040823553 0
2.421381 0.073371306 -0.017444547 0
2.3699057 0.048930768 0.040004082 0
2.4504416 0.091657713 0.043212704 0
2.442812 0.086185746 0.049085248 0
2.4434242 0.086702503 0.048471127 0
2.4510393 0.090405941 0.044407461 0
2.4660673 0.094247058 0.0093481774 0
2.4496224 0.083574973 0.050270878 0
2.4464905 0.10064862 0.03340349 0
2.3631563 0.10183818 -0.0054725851 0
2.3342323 0.03784604 0.013132855 0
2.4464083 0.095138326 0.040508654 0
2.3480937 0.049658336 0.047791146 0
2.4671407 0.093341589 0.009340575 0
2.3376539 0.079332128 -0.056056771 0
2.3606513 0.10562705 -0.0079080751 0
2.372973 0.051790673 0.035368364 0
2.3734465 0.052217979 0.034453489 0
2.3604598 0.099298432 -0.0038336813 0
2.3630524 0.052137204 0.039423723 0
2.3607783 0.1078001 -0.0091179926 0
2.3959923 -0.0059382692 0.019476406 0
2.4469333 0.095610417 0.039762873 0
2.3624051 0.038012583 0.053245101 0
2.3629463 0.03852158 0.052570608 0
2.3717546 0.1123325 -0.012153521 0
2.4646049 0.094726741 0.0063236384 0
2.3617816 0.10053543 -0.0047186082 0
2.3693614 0.030238628 0.041005261 0
2.4293211 0.080835268 -0.015121959 0
2.3548028 0.10204187 -0.0016264799 0
2.4491422 0.084947214 0.049350772 0
2.3770001 0.028203309 -0.014003224 0
2.4685218 0.090702966 0.0043027112 0
2.3611708 0.10197835 -0.0057141893 0
2.3514709 0.054751474 0.040282503 0
2.3719907 0.050884929 0.037035208 0
2.3640916 0.088579059 0.0054816706 0
2.3538215 0.090838321 0.0055649374 0
2.3541334 0.11781853 -0.0093231369 0
2.3616569 0.11485206 -0.013469146 0
2.3681037 0.10265568 -0.0044626757 0
2.3665993 0.0300158 0.049094886 0
2.4510589 0.088603467 0.046206195 0
2.4668918 0.09307041 0.0063289795 0
2.4590156 0.094083667 0.034995716 0
2.3532982 0.048673559 0.045076013 0
2.3719528 0.052798152 0.035337918 0
2.3550222 0.098142788 -5.4358738e-05 0
2.454844 0.095687434 0.035731938 0
2.3614945 0.12084357 -0.018280717 0
2.3623364 0.078654103 0.0074304738 0
2.3652267 0.11415137 -0.013915484 0
2.4521894 0.096876107 0.035854544 0
2.3542817 0.083076961 0.0087792985 0
2.3546648 0.099874668 -0.00039066304 0
2.3677669 0.040928543 0.043734383 0
2.3671799 0.048304111 0.041819178 0
2.3577771 0.10492015 -0.0063256146 0
2.3672481 0.093713738 0.0035244075 0
2.3607042 0.087326407 0.0077256537 0
2.3530099 0.079836354 0.011288309 0
2.458462 0.090109773 0.041255459 0
2.4519551 0.099772915 0.0040991651 0
2.3547962 0.11028109 -0.0056521287 0
2.4470198 0.093882062 0.041720096 0
2.4407701 0.063651174 0.061288763 0
2.4414508 0.064331137 0.060940698 0
2.4421239 0.065000087 0.060554806 0
2.442759 0.065617613 0.060113735 0
2.4434109 0.066262312 0.059693638 0
2.4440184 0.066849038 0.05915451 0
2.4446044 0.067408442 0.058562629 0
2.4451594 0.067938656 0.057902388 0
2.4457891 0.06855268 0.057421464 0
2.4464338 0.069189727 0.05698983 0
2.4470451 0.069792062 0.056483675 0
2.4577892 0.099778786 0.013288563 0
2.4371963 0.093676582 0.043355927 0
2.3643298 0.039774109 0.04991851 0
2.4498963 0.072661579 0.055431526 0
2.4505856 0.073352009 0.055111442 0
2.4512353 0.073987879 0.054677621 0
2.4518728 0.074663557 0.054366078 0
2.4525995 0.075340308 0.053981561 0
2.4532483 0.075988054 0.053563491 0
2.453887 0.07660602 0.053088795 0
2.454453 0.077140473 0.052444082 0
2.4549553 0.077599347 0.051634416 0
2.4554303 0.078024805 0.050782986 0
2.4559534 0.078506432 0.050014682 0
2.456583 0.079115465 0.049540374 0
2.4573057 0.079842471 0.049306627 0
2.4580464 0.080605835 0.04911356 0
2.4587076 0.081253193 0.048710868 0
2.4592924 0.08182402 0.048131693 0
2.4598079 0.082291141 0.04734768 0
2.4603014 0.082742013 0.046528935 0
2.4607961 0.083191648 0.045710173 0
2.4612749 0.083613612 0.044820387 0
2.4617586 0.084053367 0.043991197 0
2.4622667 0.084516853 0.043188594 0
2.4627852 0.084988795 0.042397447 0
2.4632967 0.085464031 0.041651275 0
2.4638052 0.085924812 0.040849179 0
2.4643095 0.086386666 0.040041603 0
2.4647944 0.086820409 0.039213322 0
2.4652374 0.08720313 0.038289201 0
2.4656627 0.087568626 0.037287164 0
2.4660723 0.08790274 0.036247712 0
2.4665396 0.088306248 0.035324231 0
2.467005 0.088710234 0.034402497 0
2.4673278 0.089128412 0.033238694 0
2.3656485 0.098222755 -0.00089173543 0
2.3776767 0.044458367 0.036346659 0
2.4453001 0.088614106 0.047098368 0
2.4223082 0.078713164 0.047219366 0
2.3618345 0.052913569 0.038875546 0
2.3726239 0.045591928 0.039383233 0
2.3717458 0.042800944 0.040911958 0
2.4447844 0.080731571 0.052866522 0
2.4548464 0.090389483 0.043087982 0
2.4648638 0.094998971 0.0083455071 0
2.4551561 0.092422836 0.040048357 0
2.3363113 0.051201195 -0.0003820979 0
2.356688 0.040314332 0.052991867 0
2.4510026 0.09216699 0.042562973 0
2.452481 0.093533196 0.040126096 0
2.4422014 0.085588545 0.049602553 0
2.357161 0.085898869 0.005808678 0
2.3572621 0.040883154 0.052386653 0
2.363452 0.079789698 0.0062198183 0
2.3694162 0.11616654 -0.016258279 0
2.3644605 0.10317221 -0.0062318323 0
2.4482164 0.087741457 0.047610953 0
2.4474545 0.096072011 0.039010473 0
2.3474824 0.049074017 0.04832343 0
2.467046 0.093243562 0.0083257286 0
2.3693273 0.054225389 0.03576434 0
2.3514035 0.046924297 0.048557084 0
2.3663318 0.045493513 0.043360811 0
2.3540442 0.095144212 0.003036533 0
2.3638802 0.082209967 0.0056366138 0
2.3585162 0.055547692 0.036064409 0
2.4487922 0.088317059 0.047029272 0
2.3611803 0.036822673 0.054288175 0
2.3617806 0.037405122 0.053734045 0
2.363102 0.10389507 -0.0070038852 0
2.437891 0.094364777 0.04303572 0
2.4512343 0.095995381 0.037588548 0
2.3540018 0.070741117 0.017382765 0
2.3628919 0.093646258 0.0022118709 0
2.3550029 0.046417933 0.046394568 0
2.4352911 0.095534042 0.041330792 0
2.4366393 0.096870869 0.040599298 0
2.3704925 0.031186238 0.039607272 0
2.3600557 0.076486543 0.0099637024 0
2.3626788 0.0066626929 0.016041655 0
2.4687827 0.090981491 0.0062955893 0
2.3645217 0.10934467 -0.010649119 0
2.35199 0.055238549 0.039536908 0
2.430943 0.094960973 0.041309893 0
2.3647513 0.089215219 0.0050600879 0
2.3533049 0.090350479 0.0063235005 0
2.3564239 0.12008856 -0.013621647 0
2.3622539 0.11541077 -0.014037186 0
2.3674674 0.10197672 -0.0040833056 0
2.3556142 0.10902521 -0.0061019356 0
2.4504626 0.088078938 0.046801597 0
2.4272687 0.095150374 0.041068666 0
2.3657663 0.056666087 0.034355402 0
2.3509767 0.038615756 0.053930264 0
2.3714328 0.052308332 0.036028631 0
2.3652196 0.046387613 0.043096922 0
2.4564707 0.092153572 -0.0050694444 0
2.4475653 0.087109491 0.048039865 0
2.3597832 0.078267604 0.0097663235 0
2.3591797 0.077690393 0.010319121 0
2.3630137 0.054054271 0.037728176 0
2.3586278 0.099561907 -0.0037662978 0
2.3632357 0.058138408 0.033053998 0
2.4624567 0.096514419 0.021311169 0
2.362711 0.057643335 0.033791911 0
2.3621862 0.057121608 0.03450767 0
2.3504915 0.059837915 0.039194897 0
2.3639209 0.037511103 0.052565388 0
2.3571794 0.042698435 0.050529461 0
2.3577042 0.04319394 0.049792983 0
2.3591785 0.044519108 0.047324989 0
2.4589164 0.090491466 0.040389713 0
2.3706565 0.099078961 0.00021909806 0
2.4479518 0.096538946 0.038196553 0
2.4404762 0.065232068 0.060799584 0
2.4411576 0.065909497 0.060446534 0
2.4419048 0.066490464 0.060086448 0
2.4425035 0.067262717 0.059761435 0
2.4431252 0.067869805 0.059272397 0
2.4437149 0.068431407 0.058685508 0
2.4442513 0.068934985 0.057969213 0
2.4448547 0.069517538 0.057421405 0
2.445492 0.070140213 0.056961361 0
2.4460781 0.070712797 0.056391105 0
2.4466407 0.071242973 0.055739608 0
2.4472888 0.071877435 0.055303093 0
2.3730474 0.039959978 0.039179426 0
2.3684392 0.031595889 0.045410555 0
2.4495611 0.074239329 0.054985985 0
2.4502976 0.074958444 0.054704309 0
2.4509881 0.075638652 0.054356545 0
2.4516582 0.076311141 0.053999834 0
2.4522755 0.076904967 0.053464897 0
2.4528697 0.077472106 0.052884065 0
2.4534314 0.077997789 0.052226871 0
2.4539535 0.078479707 0.051486384 0
2.4544716 0.078955367 0.050705276 0
2.4550605 0.079519764 0.050121587 0
2.4556897 0.080112793 0.049646042 0
2.4563954 0.080840848 0.049376968 0
2.45715 0.081612542 0.049205467 0
2.4578218 0.082286701 0.048842583 0
2.4583988 0.082834378 0.048229739 0
2.4589143 0.083302826 0.047444589 0
2.459414 0.083759107 0.046633843 0
2.4599085 0.084208049 0.045813046 0
2.460392 0.084648617 0.044986978 0
2.4608617 0.085063271 0.044083018 0
2.4613435 0.085491061 0.043200046 0
2.4618394 0.085949272 0.042435318 0
2.4623497 0.086416423 0.041637331 0
2.4628372 0.0868503 0.040756375 0
2.46332 0.08728563 0.039983362 0
2.4637859 0.087691844 0.039078854 0
2.4642229 0.088072419 0.03809128 0
2.4646509 0.088431865 0.037083097 0
2.4650826 0.08879865 0.036061794 0
2.4655347 0.089186355 0.035128027 0
2.4659851 0.089573115 0.034192353 0
2.4220006 0.079777248 -0.014944594 0
2.4520853 0.10193127 0.010197169 0
2.4653008 0.08712814 -0.0069277519 0
2.3661115 0.10063148 -0.0033785254 0
2.3560493 0.10119016 -0.0030281199 0
2.4494801 0.097990125 0.035856657 0
2.3576045 0.073589087 -0.0012049244 0
2.3310053 0.042435762 0.010222675 0
2.3676658 0.096224144 0.0030287979 0
2.4532759 0.088927329 0.045325626 0
2.3784051 0.045232691 0.036192477 0
2.4541891 0.091515087 0.041750729 0
2.3668292 0.10129879 -0.0037018803 0
2.3576055 0.078230217 0.011012744 0
2.4515071 0.092664309 0.041788176 0
2.4520018 0.093121961 0.040978327 0
2.4415905 0.084974512 0.050099581 0
2.3574262 0.069951653 0.014754115 0
2.3550065 0.064083084 0.032109167 0
2.4543691 0.088145241 0.045719422 0
2.3613658 0.10838436 -0.0096785454 0
2.3679097 0.10648306 -0.0080216518 0
2.3736851 0.042609911 0.039144769 0
2.448447 0.097017735 0.03739053 0
2.4583247 0.091735013 0.039189331 0
2.4610655 0.095029689 0.002222205 0
2.3682282 0.053170688 0.037113212 0
2.3508513 0.04641705 0.049233198 0
2.3650637 0.044248987 0.044307437 0
2.4384553 0.074332885 0.055372294 0
2.3366075 0.032558184 0.023034416 0
2.4378591 0.08316198 0.051301114 0
2.3595049 0.08005292 0.0095726633 0
2.3535488 0.094687104 0.0038714889 0
2.359386 0.12089048 -0.016891902 0
2.368387 0.11311882 -0.013305778 0
2.4522054 0.10208205 0.015201911 0
2.3560755 0.0397067 0.053492785 0
2.3468802 0.054388836 0.044071604 0
2.3607776 0.040335454 0.052062266 0
2.3484714 0.065783463 0.035959031 0
2.4359901 0.09621013 0.040993147 0
2.3691678 0.10166622 -0.0024275053 0
2.3498888 0.039542422 0.053713523 0
2.3712435 0.031933568 0.039476883 0
2.3631852 0.12040602 -0.018703055 0
2.4266572 0.064959139 -0.027045142 0
2.343554 0.05385622 -0.016119955 0
2.4481075 0.094870731 0.040337518 0
2.3525469 0.055777669 0.038895793 0
2.3231373 0.075383112 -0.049147699 0
2.3653929 0.089858145 0.0046264096 0
2.3539376 0.11151233 -0.0052528437 0
2.4491413 0.10289974 0.017140066 0
2.3546703 0.10811546 -0.0044103255 0
2.3628333 0.11598701 -0.014626647 0
2.3598104 0.09456411 -0.00036982552 0
2.3566339 0.091478273 0.0019413303 0
2.4467859 0.084490612 0.049900793 0
2.4163637 0.092976615 0.038985495 0
2.3724904 0.057085235 0.02939214 0
2.3583622 0.04565911 0.04572871 0
2.3588424 0.046101686 0.044880293 0
2.3645997 0.045777459 0.043579798 0
2.3639903 0.045187738 0.044109724 0
2.3634253 0.04465254 0.044749256 0
2.3629336 0.04419088 0.045576762 0
2.3472681 0.062668905 0.038629752 0
2.466784 0.088778183 -0.0028183167 0
2.3612132 0.10408872 -0.007091064 0
2.3644726 0.10725383 -0.0092498399 0
2.3609459 0.069063067 0.0093817897 0
2.4589765 0.098997146 0.0182967 0
2.3688271 0.04791465 0.041397005 0
2.3553598 0.12108827 -0.013737056 0
2.3506622 0.052074142 0.043911919 0
2.3536236 0.070586875 0.018177319 0
2.3615973 0.11272415 -0.012129467 0
2.3587048 0.04409891 0.048184365 0
2.4489758 0.097496405 0.036653038 0
2.3579075 0.056947418 0.035023998 0
2.4512906 0.10109656 0.026155649 0
2.4401183 0.066734709 0.060162269 0
2.4407129 0.06748189 0.059871133 0
2.4415233 0.068163007 0.059630159 0
2.4421721 0.068810917 0.059217088 0
2.4427853 0.069405735 0.058699377 0
2.4433105 0.069887139 0.057944834 0
2.4439368 0.070503637 0.057467818 0
2.4445655 0.071114555 0.056985933 0
2.4451311 0.071656652 0.056348704 0
2.4456487 0.07211227 0.055557314 0
2.4461734 0.072653942 0.054895274 0
2.3523822 0.04784333 0.046885736 0
2.3743987 0.041280266 0.038438488 0
2.3749144 0.053567715 0.031925451 0
2.4493234 0.075856835 0.054558612 0
2.4499793 0.076519802 0.054188695 0
2.4506371 0.077168837 0.053770248 0
2.451277 0.077786915 0.053293996 0
2.4518528 0.078332715 0.052668333 0
2.4524174 0.078860879 0.05202033 0
2.452961 0.079372257 0.051319465 0
2.4535224 0.079902008 0.050672829 0
2.4540992 0.080448568 0.050078254 0
2.4547677 0.081118107 0.049701571 0
2.4555011 0.081862271 0.049507849 0
2.4562452 0.082616977 0.049284223 0
2.4568622 0.083216451 0.048777323 0
2.4574327 0.083760083 0.048147012 0
2.4579687 0.084260233 0.047429778 0
2.4584742 0.084720939 0.046623789 0
2.4589958 0.085203856 0.045889117 0
2.4594853 0.08564169 0.045014679 0
2.4599571 0.086064622 0.044168163 0
2.4604185 0.086475618 0.043261502 0
2.4609029 0.086913362 0.042434458 0
2.4613965 0.087359905 0.041615855 0
2.4618585 0.087765686 0.040708203 0
2.4623163 0.088165902 0.039797015 0
2.4627683 0.088562012 0.038821504 0
2.4632061 0.088933893 0.037888095 0
2.4636278 0.089288086 0.036865797 0
2.464062 0.089657098 0.035849661 0
2.4644928 0.090017788 0.034896888 0
2.4649341 0.090396427 0.033885747 0
2.3571532 0.063032329 0.030044263 0
2.3531692 0.082011208 0.010099915 0
2.4640455 0.096192487 0.015348456 0
2.335 0.053780548 -0.00034151482 0
2.3578691 0.041436218 0.05181931 0
2.3619311 0.10687122 -0.0088251252 0
2.4502378 0.084176004 0.049756374 0
2.4555178 0.094512217 0.037145022 0
2.3479152 0.065264612 0.036611464 0
2.4521585 0.087845795 0.046621844 0
2.3552516 0.11073042 -0.0065126484 0
2.3562968 0.1138137 -0.0094077336 0
2.4631152 0.093099505 -0.00078809215 0
2.4602773 0.096248053 0.0042547332 0
2.4529753 0.093987934 0.039305609 0
2.4409811 0.084372804 0.050606135 0
2.4403262 0.083776481 0.051085852 0
2.3407393 0.073469132 -0.031161929 0
2.3316362 0.08013314 -0.046181269 0
2.3310311 0.060523514 -0.010368007 0
2.362011 0.10898386 -0.010159045 0
2.3736131 0.11208417 -0.012145558 0
2.3341 0.05672837 -0.0012764772 0
2.3490608 0.062440068 0.038561814 0
2.3676941 0.098125778 0.001369609 0
2.4601884 0.091587618 0.037370287 0
2.4634733 0.091335393 0.034166664 0
2.3676577 0.052621689 0.037736014 0
2.3448441 0.019659385 0.026882801 0
2.3645029 0.043714732 0.044956639 0
2.3544922 0.095555812 0.0020929195 0
2.4136267 0.069855198 -0.017165853 0
2.3589323 0.071346641 0.012354259 0
2.3745313 0.045401171 0.037573315 0
2.373467 0.044416979 0.039043777 0
2.466192 0.092290893 0.0032939857 0
2.3607213 0.081184372 0.0084355166 0
2.4208734 0.090621963 0.041807588 0
2.4201324 0.089918748 0.042079918 0
2.3644037 0.037954826 0.051729117 0
2.3498619 0.059226811 0.03967173 0
2.422102 0.07403899 -0.017232163 0
2.4641268 0.096268564 0.014355839 0
2.4286022 0.098343372 0.038579889 0
2.362062 0.011498425 0.0072168065 0
2.3483956 0.044481128 -0.0052134451 0
2.3659084 0.047058295 0.042736933 0
2.3439379 0.020650767 0.027892828 0
2.340564 0.024954438 0.030920673 0
2.3989418 0.064251363 -0.011658447 0
2.3299947 0.060572591 -0.016295588 0
2.3531229 0.056351732 0.038333673 0
2.3566759 0.10384879 -0.0050207768 0
2.3660202 0.090450525 0.0041193007 0
2.3579831 0.04914264 0.041566499 0
2.3551302 0.10854083 -0.0053338725 0
2.3474963 0.053026099 0.045156393 0
2.359175 0.09393701 4.9803755e-05 0
2.3571265 0.083910212 0.0073995469 0
2.3626721 0.11991882 -0.017959386 0
2.3550694 0.11876021 -0.010981243 0
2.3537478 0.074477948 0.013715838 0
2.3644238 0.10517169 -0.0078409035 0
2.3435016 0.020243526 0.036864422 0
2.3588805 0.11832322 -0.02064907 0
2.4184923 0.070632219 -0.018026588 0
2.3642285 0.053246077 0.038240008 0
2.3624671 0.043743894 0.046491504 0
2.3620288 0.043355376 0.047452211 0
2.3611183 0.042534649 0.049263667 0
2.4640458 0.096194945 0.012354007 0
2.3392763 0.076495595 -0.054127265 0
2.3619285 0.065822788 0.014246804 0
2.4081354 -0.00053352863 0.026591722 0
2.371074 0.11764544 -0.019691406 0
2.4037237 -0.00025813654 0.031821828 0
2.3620527 0.065951951 0.013255464 0
2.4646385 0.09474054 0.022316346 0
2.4662142 0.094410896 0.011348877 0
2.3477683 0.043405768 0.051792577 0
2.3582206 0.043649673 0.049026791 0
2.3773823 0.050030857 0.032761879 0
2.3672071 0.038507923 0.046175532 0
2.3687823 0.051744528 0.038063113 0
2.4397664 0.08504656 0.049954738 0
2.4404778 0.06897606 0.059312813 0
2.4411271 0.069639497 0.058933582 0
2.441745 0.07024812 0.058442373 0
2.4423435 0.070801102 0.057854831 0
2.4429908 0.071451649 0.057429601 0
2.4436207 0.072076142 0.056965206 0
2.4441812 0.072594583 0.056306086 0
2.444675 0.073036216 0.055478681 0
2.4451587 0.073507801 0.054662723 0
2.360554 0.072871186 0.010245818 0
2.3749952 0.041822039 0.037854973 0
2.3737531 0.040647298 0.038878947 0
2.3392549 0.074238561 -0.031175509 0
2.4489639 0.077381901 0.053966749 0
2.4496224 0.078039072 0.053572055 0
2.4502726 0.078670181 0.053116642 0
2.4508719 0.079236239 0.052547261 0
2.4514229 0.079760388 0.051868644 0
2.4520056 0.080306038 0.051268414 0
2.4525654 0.080840915 0.050612707 0
2.4531887 0.081451602 0.050136261 0
2.4538655 0.08212845 0.04978304 0
2.4545519 0.082811937 0.049495935 0
2.4552381 0.083495267 0.04910871 0
2.4558713 0.084098376 0.048613563 0
2.4564295 0.084643967 0.047970738 0
2.4569819 0.085152023 0.04729965 0
2.4574976 0.085632868 0.046521079 0
2.4580402 0.086139962 0.045811109 0
2.4585328 0.086588144 0.044990834 0
2.4590092 0.087015152 0.044151716 0
2.4594803 0.087433033 0.043255124 0
2.4599662 0.087872662 0.042429313 0
2.4604411 0.088297516 0.041536901 0
2.4608874 0.088685721 0.040670555 0
2.4613385 0.08907596 0.039693795 0
2.4617531 0.089430109 0.03868771 0
2.462178 0.089786008 0.037674081 0
2.4626269 0.090179361 0.036671147 0
2.4630668 0.090550058 0.035726838 0
2.4634938 0.090909719 0.034772199 0
2.4438546 0.10000666 0.035367671 0
2.3376119 0.054332513 -0.0062526735 0
2.3637278 0.092269875 0.0053559537 0
2.4420283 0.076025516 0.053855605 0
2.4414494 0.075450934 0.054429419 0
2.4409115 0.07493332 0.055130422 0
2.4403405 0.074374855 0.055735022 0
2.45085 0.084775254 0.04924351 0
2.3675866 0.11645407 -0.016175548 0
2.3649058 0.085273042 0.0045834631 0
2.4527307 0.088391364 0.046004567 0
2.3563437 0.077000111 0.011957378 0
2.4443729 0.10045031 0.034608889 0
2.3573735 0.11689657 -0.012329494 0
2.3720875 0.056742635 0.030374505 0
2.4534724 0.09444876 0.038488943 0
2.4471297 0.09030436 0.045450445 0
2.355541 0.020208932 0.0041961344 0
2.3484275 0.044066586 0.05140546 0
2.3485377 0.05399105 0.043648429 0
2.3626354 0.10959832 -0.010645824 0
2.3565321 0.017568178 0.010219708 0
2.3456061 0.018577546 0.015862215 0
2.3530788 0.066159196 0.030152308 0
2.4559829 0.087830529 0.045361321 0
2.3553936 0.042924415 0.050610334 0
2.3605099 0.10137663 -0.0052474821 0
2.3687699 0.053703815 0.036418527 0
2.3599598 0.043377705 0.048840016 0
2.3656747 0.044840369 0.043780737 0
2.360759 0.038366266 0.053632013 0
2.3785765 0.049296219 0.033344235 0
2.3558276 0.12153415 -0.01458373 0
2.3739898 0.044868335 0.038234774 0
2.3565719 0.10169309 -0.0037608575 0
2.4464736 0.087891325 0.047650009 0
2.3195949 0.079920322 -0.052024141 0
2.4400308 0.10006574 0.036709778 0
2.3498282 0.067087047 0.033254884 0
2.3502514 0.067474857 0.032291979 0
2.3600321 0.10502271 -0.007402434 0
2.355926 0.043443423 0.049894597 0
2.4346461 0.094860934 0.041710377 0
2.3572445 0.03889434 0.053952981 0
2.3563643 0.042109504 -0.0072932262 0
2.3570838 0.042807057 -0.0073330435 0
2.3657968 0.11059256 -0.011560367 0
2.3642323 0.051339317 0.039892923 0
2.3492773 0.027428556 -0.0017148319 0
2.4281058 0.063641533 -0.029051973 0
2.3435905 0.020328306 0.035866901 0
2.3536673 0.056857269 0.037615195 0
2.3619976 0.070600122 0.0058671301 0
2.3666513 0.091096185 0.0036762091 0
2.4449136 0.10261387 0.0059919846 0
2.3545516 0.063668303 0.032981746 0
2.3634036 0.11654413 -0.015245338 0
2.3559263 0.11551552 -0.0098226275 0
2.3530974 0.088098273 0.0073576421 0
2.3584437 0.085009217 0.0081243599 0
2.366456 0.11328032 -0.013469761 0
2.4599292 0.095827639 0.031222492 0
2.3463016 0.051905148 0.046338081 0
2.3533266 0.058532208 0.037201811 0
2.4658718 0.085671969 -0.0079582604 0
2.3465507 0.065951243 -0.02525341 0
2.3705399 0.059125882 0.027388966 0
2.3533092 0.016493782 0.015056174 0
2.3651695 0.11616533 -0.021971498 0
2.3684919 0.02150175 0.038345784 0
2.3606248 0.04211418 0.050056342 0
2.3615897 0.04295652 0.048401576 0
2.4395423 0.099615298 0.037538309 0
2.3628883 0.0068534948 0.013059616 0
2.4521158 0.091445491 0.043012157 0
2.4641364 0.094171457 0.027282525 0
2.4673052 0.08935944 -0.00077803526 0
2.4691055 0.091313533 0.019326461 0
2.4667289 0.092888199 0.0053286739 0
2.3660474 0.029608749 0.049887046 0
2.4570081 0.088796474 0.043793835 0
2.3548183 0.040450513 0.052874573 0
2.3769557 0.049660005 0.033738621 0
2.3778629 0.05051633 0.03196016 0
2.3583503 0.10547025 -0.0069457884 0
2.4210887 0.092791028 0.040729523 0
2.420357 0.092044674 0.040929414 0
2.4406509 0.071023874 0.058040991 0
2.441303 0.071652837 0.057601284 0
2.4419837 0.072311088 0.057230748 0
2.4426022 0.072933353 0.056750689 0
2.4431617 0.073443472 0.056087233 0
2.443635 0.073877007 0.05520951 0
2.4441059 0.074312203 0.054337405 0
2.4446769 0.074864268 0.053735565 0
2.333102 0.036798116 0.034059659 0
2.3756027 0.042408109 0.037323434 0
2.3715663 0.11415031 -0.014110807 0
2.4479506 0.07825014 0.053767931 0
2.4486082 0.078903705 0.053360559 0
2.4492567 0.079532459 0.052910507 0
2.4498665 0.080116615 0.052370563 0
2.4504716 0.080697522 0.051825739 0
2.4510407 0.08123821 0.051195275 0
2.4516335 0.081814572 0.050628781 0
2.4522634 0.08243335 0.050153248 0
2.4528933 0.083048522 0.04968879 0
2.4535387 0.083681338 0.049243104 0
2.4541862 0.084314846 0.048802324 0
2.4548008 0.084918261 0.048295893 0
2.455406 0.085488521 0.047739249 0
2.4559476 0.086001277 0.047036786 0
2.4564879 0.086510055 0.04633012 0
2.457027 0.087010309 0.045615993 0
2.45752 0.087459162 0.044794649 0
2.4580297 0.087916806 0.04403973 0
2.4585176 0.088362776 0.043166641 0
2.4589956 0.088787816 0.042329319 0
2.4594679 0.08921238 0.041436918 0
2.4599199 0.08960896 0.040518805 0
2.4603391 0.089959599 0.039567582 0
2.460758 0.090322487 0.038439311 0
2.4611952 0.090694398 0.037562244 0
2.4616504 0.091094062 0.036568049 0
2.462095 0.091474742 0.035628077 0
2.4625235 0.091839842 0.034607101 0
2.3542466 0.072957948 0.014461115 0
2.4390259 0.082486995 0.051914833 0
2.3712597 0.056012623 0.032396622 0
2.3489678 0.056350965 0.041098215 0
2.3479996 0.063013509 -0.019270269 0
2.3568587 0.059885949 0.033257786 0
2.3518577 0.041458815 0.052449662 0
2.4514589 0.085355103 0.048701864 0
2.3645666 0.11144208 -0.012038278 0
2.4586606 0.098613903 0.02227083 0
2.4656031 0.093733817 0.0053216531 0
2.3529058 0.11050133 -0.0037861271 0
2.3756194 0.04642484 0.036175359 0
2.3536372 0.072384968 0.014991784 0
2.3522317 0.065388665 0.032210648 0
2.4539375 0.094879784 0.037585463 0
2.4465606 0.089784302 0.046092521 0
2.4486096 0.095362969 0.039542034 0
2.3567722 0.064949028 0.026052004 0
2.3761714 0.046928082 0.035478365 0
2.3632917 0.1102246 -0.011079205 0
2.3596754 0.039275095 0.05339811 0
2.4630859 0.090990663 -0.0038893032 0
2.3687928 0.049821958 0.039698612 0
2.456399 0.095296122 0.035208903 0
2.3772008 0.053779766 0.029135713 0
2.3651345 0.10996997 -0.011123537 0
2.3698466 0.054708783 0.035020519 0
2.3594787 0.042930212 0.049682811 0
2.3669908 0.046137244 0.042961814 0
2.3601871 0.037812099 0.054234054 0
2.3665082 0.006452512 0.0051770476 0
2.3690107 0.042131044 0.042690482 0
2.375062 0.045893755 0.036837496 0
2.3489468 0.06624648 0.035129871 0
2.3273308 0.06389527 -0.022271292 0
2.3564513 0.061492868 0.032703981 0
2.4504018 0.086168893 0.04838698 0
2.3474073 0.054889336 0.043338493 0
2.4396763 0.083128341 0.051498462 0
2.3548257 0.042380687 0.051239721 0
2.3542573 0.04183618 0.051866353 0
2.4339533 0.094166294 0.042015281 0
2.4332509 0.09350609 0.042378251 0
2.3573637 0.062336385 0.030889444 0
2.3632021 0.10809892 -0.0097700069 0
2.4569299 0.094720773 -0.0019206685 0
2.4528263 0.1006135 0.0061997864 0
2.3390572 0.027328797 0.012920825 0
2.3544416 0.10377569 -0.001966503 0
2.4052858 0.044038873 -0.02001315 0
2.3541183 0.057268653 0.036684595 0
2.3618882 0.070275232 0.007142636 0
2.3708642 0.095477954 -0.0014913953 0
2.3712211 0.096115835 -0.0022438839 0
2.3747511 0.10927822 -0.010137164 0
2.3639951 0.11707436 -0.015834952 0
2.4461238 0.082052492 0.05209801 0
2.3419557 0.072468072 -0.031160662 0
2.3653476 0.091869541 0.0049314518 0
2.3646917 0.091228336 0.0053529344 0
2.4550653 0.09411186 0.038069583 0
2.3707347 0.11541881 -0.015579425 0
2.3419018 0.072420962 -0.033166632 0
2.3537343 0.058830261 0.035988532 0
2.3541846 0.059310157 0.035234023 0
2.4509795 0.086737685 0.047797296 0
2.3701398 0.058768917 0.028446069 0
2.3604753 0.049609665 0.041181412 0
2.3566394 0.046008658 0.045964003 0
2.3547728 0.053895038 0.037447251 0
2.3540273 0.058058899 -0.0034112085 0
2.4138577 0.044757254 -0.026961021 0
2.4605982 0.094478987 0.00022135477 0
2.3699174 0.020846102 -0.0087974658 0
2.356873 0.017693955 0.022247801 0
2.4467397 0.08265987 0.05159637 0
2.4473448 0.083219245 0.051026199 0
2.3585148 0.093312204 0.00048585271 0
2.3840406 0.021074656 -0.016114702 0
2.4184053 0.092027515 0.040546034 0
2.4622967 0.094238102 0.031230729 0
2.367574 0.030937292 0.047506705 0
2.4191065 0.0927018 0.040207598 0
2.4176996 0.091352098 0.040882796 0
2.3507833 0.058113016 0.039493322 0
2.4016907 0.040516615 -0.019493913 0
2.3787827 0.017771058 -0.013921749 0
2.3801758 0.019198045 -0.014544791 0
2.3467832 0.017768994 0.034892425 0
2.3376555 0.054374091 -0.0092434967 0
2.3729889 0.11530709 -0.019717572 0
2.3419964 0.072491556 -0.030154901 0
2.3773525 0.016311366 -0.013131699 0
2.366879 0.023847491 -0.0069238753 0
2.3747532 0.031907625 -0.012260522 0
2.3611615 0.028197609 -0.0036674475 0
2.3988297 0.037710249 -0.019268578 0
2.3404045 0.070937425 -0.017217742 0
2.3741376 0.1039383 -0.0071493941 0
2.3376107 0.042907037 0.003420929 0
2.3455007 0.067119256 -0.030259388 0
2.4864163 0.038321584 0.0039842315 0
2.486445 0.038358241 0.0029884949 0
2.4861457 0.038006488 0.0019634841 0
2.4859285 0.037749328 0.00095032621 0
2.4856286 0.037395317 -7.2470459e-05 0
2.4853275 0.0370427 -0.0010975773 0
2.4853561 0.037077792 -0.0020950742 0
2.4852233 0.036914654 -0.0031033093 0
2.4850867 0.036759194 -0.0041156807 0
2.4849527 0.036596872 -0.0051243124 0
2.4848988 0.036536165 -0.0061332076 0
2.4847641 0.036376428 -0.0071421657 0
2.4848757 0.036508337 -0.0081364959 0
2.4845796 0.035804085 -0.009185263 0
2.4839823 0.035515338 -0.010188773 0
2.4838774 0.035460051 -0.01117492 0
2.3809097 0.019907627 -0.014596446 0
2.4833825 0.037128538 0.045799766 0
2.4838219 0.037646726 0.044858046 0
2.4842279 0.038162641 0.043894868 0
2.4845085 0.038489848 0.04292383 0
2.4847829 0.038820084 0.041953113 0
2.4850516 0.039162047 0.040982965 0
2.4852123 0.039293174 0.040000848 0
2.4855139 0.039611924 0.039021622 0
2.3780551 0.017032031 -0.013494972 0
2.3991103 0.035963308 -0.019193491 0
2.3341162 0.056761708 -0.0022742213 0
2.361397 0.0090917312 0.020064548 0
2.3453393 0.066954613 -0.031275865 0
2.342293 0.055977941 -0.026897864 0
2.4673452 0.091421597 0.028273607 0
2.3371212 0.074364796 -0.027222576 0
2.3425822 0.07081639 -0.020186812 0
2.3344138 0.082825527 -0.057075754 0
2.3406291 0.073380798 -0.030163996 0
2.403456 -0.0044380538 0.02289509 0
2.3766258 0.015559357 -0.012578236 0
2.4189398 0.073037103 -0.017676275 0
2.4174969 0.071664117 -0.017997375 0
2.3614349 0.10227285 -0.014002423 0
2.3866651 0.025668703 -0.01667702 0
2.40815 0.046839714 -0.020212866 0
2.4984565 0.054676261 0.013924152 0
2.4983552 0.054628976 0.012924606 0
2.4981797 0.054487254 0.011921151 0
2.4980505 0.054573335 0.010969521 0
2.4974215 0.053585704 0.0098731928 0
2.4970889 0.053365014 0.0089003332 0
2.4962671 0.052454438 0.0078650909 0
2.3696828 0.11841643 -0.01969783 0
2.4856167 0.039592661 0.0030057209 0
2.4859674 0.040125009 0.0020796109 0
2.4854298 0.039477795 0.0010296124 0
2.4851267 0.039024979 -3.3405842e-05 0
2.4849086 0.038770024 -0.0010500466 0
2.4847732 0.038606547 -0.002060652 0
2.4846377 0.038447369 -0.0030710143 0
2.4845593 0.038383156 -0.0040694303 0
2.4845848 0.038417481 -0.0050708638 0
2.4844847 0.038263429 -0.0060849404 0
2.4843812 0.038107786 -0.0070998752 0
2.4843056 0.038041435 -0.0081016412 0
2.4841866 0.037885774 -0.0091159558 0
2.4840319 0.037724759 -0.010123587 0
2.4837673 0.037371412 -0.011155557 0
2.4834659 0.037019022 -0.012182913 0
2.4830258 0.036564752 -0.013187523 0
2.4825368 0.036013778 -0.014202141 0
2.4819949 0.035377935 -0.015177365 0
2.4180963 0.09384881 -0.0050111064 0
2.4460211 0.085019939 -0.015014284 0
2.3643112 0.063873395 0.0082595777 0
2.3418946 0.072400048 -0.029162243 0
2.4828236 0.038618349 0.046847947 0
2.483325 0.039228134 0.045897909 0
2.4836957 0.03956696 0.044988692 0
2.4841566 0.040090468 0.044030499 0
2.4844806 0.040508419 0.043038331 0
2.4847748 0.040834136 0.042064559 0
2.4851048 0.041256323 0.04107843 0
2.4853306 0.041488566 0.040099576 0
2.4855809 0.041715987 0.03913001 0
2.4859128 0.042036884 0.038168341 0
2.3886256 0.023605771 -0.017148159 0
2.3674569 0.062648088 0.015307553 0
2.4036942 0.038494334 -0.020190956 0
2.3606339 0.010256652 0.014092907 0
2.3677373 0.12082572 -0.023703465 0
2.3652332 0.019699048 -0.0044025867 0
2.3660135 0.12120368 -0.021714726 0
2.4536722 0.1015841 0.013226135 0
2.3464358 0.065831766 -0.017241882 0
2.3639116 0.011349123 0.003245689 0
2.4045727 0.043332707 -0.019912163 0
2.3317301 0.082385629 -0.051119987 0
2.3461115 0.018981591 0.031902533 0
2.3526449 0.034298588 -0.0049081077 0
2.4027221 -0.004129082 0.023956979 0
2.3578002 0.043492116 -0.0072619361 0
2.3635969 0.03890587 -0.0070997356 0
2.406019 0.044737078 -0.020046631 0
2.5001256 0.058993381 0.018130023 0
2.499949 0.058601208 0.017109524 0
2.5000429 0.058862429 0.016125752 0
2.4998887 0.058711201 0.015119401 0
2.4996648 0.058454111 0.014106557 0
2.4994051 0.058086962 0.01308221 0
2.4991148 0.057731707 0.012061989 0
2.4988706 0.057483748 0.011058015 0
2.4985321 0.057139717 0.010058539 0
2.4979517 0.056381803 0.0089961588 0
2.4972758 0.05565019 0.0079780314 0
2.4966912 0.055126205 0.007007943 0
2.4960003 0.054293856 0.0059606591 0
2.4946501 0.052707739 0.0048836889 0
2.367336 0.062531441 0.012301926 0
2.486011 0.04226128 0.0010988712 0
2.4851801 0.041329797 6.2721083e-05 0
2.4849169 0.040977057 -0.00097683806 0
2.4846351 0.040626384 -0.0020017875 0
2.484544 0.040561207 -0.0029987292 0
2.4843316 0.040221736 -0.0040317383 0
2.4842167 0.0400692 -0.0050428486 0
2.4841032 0.039996881 -0.0060411147 0
2.4840047 0.039845198 -0.0070534497 0
2.4839461 0.039780609 -0.0080598248 0
2.4838231 0.039623596 -0.0090750195 0
2.4836292 0.039372422 -0.010101507 0
2.4834378 0.039201401 -0.011104643 0
2.483187 0.038853675 -0.012154988 0
2.4827602 0.038399976 -0.013173284 0
2.4821713 0.03766397 -0.014264696 0
2.4814365 0.036830083 -0.015324133 0
2.4805124 0.03578911 -0.016358776 0
2.4228332 0.061400127 -0.02740326 0
2.3502476 0.016481653 0.037464105 0
2.3636246 0.063211009 0.0052063381 0
2.3426771 0.070974775 -0.035206717 0
2.4036348 0.054363884 -0.019054851 0
2.3453803 0.018323593 0.020846857 0
2.4828482 0.040772315 0.046012569 0
2.4834485 0.041560911 0.044994511 0
2.4839547 0.042094924 0.04407388 0
2.4843805 0.042610623 0.043098595 0
2.4846158 0.042845257 0.04213284 0
2.4848335 0.043077033 0.041152816 0
2.4851918 0.043495372 0.040175639 0
2.4855304 0.04382506 0.039220512 0
2.3540409 0.017201845 0.011124439 0
2.3544121 0.017471496 0.010129407 0
2.3420074 0.020727612 0.022816237 0
2.3444023 0.052441563 -0.011249967 0
2.3664165 0.061540768 0.02323476 0
2.3296726 0.084765151 -0.054264899 0
2.3463614 0.065755248 -0.013243191 0
2.4638243 0.087557212 -0.0079094581 0
2.3662803 0.1215312 -0.022715623 0
2.3341255 0.082509041 -0.055050679 0
2.346535 0.065948322 -0.01823638 0
2.3399343 0.074917994 -0.05215225 0
2.4170558 0.069241337 -0.018088244 0
2.3674951 0.040605757 -0.0068905447 0
2.3435485 0.037597388 -0.0008604289 0
2.4019771 0.038809881 -0.019881299 0
2.5006397 0.061686739 0.02223786 0
2.5007718 0.061809909 0.021246536 0
2.5009203 0.061925881 0.020257263 0
2.5010104 0.062056519 0.019263117 0
2.5011029 0.062296353 0.018275097 0
2.5010352 0.062242307 0.017276248 0
2.500927 0.062089395 0.016268663 0
2.5008891 0.062135562 0.015279441 0
2.5006726 0.061902616 0.014273122 0
2.5004072 0.061430074 0.01323038 0
2.5001435 0.061306164 0.012255531 0
2.4997315 0.060746156 0.011217189 0
2.4993656 0.060294352 0.01019698 0
2.4988518 0.059763551 0.0091972472 0
2.4977634 0.058540724 0.0081619918 0
2.4968536 0.057166964 0.0069602691 0
2.4963658 0.056730639 0.005990874 0
2.4957161 0.055998582 0.0049663107 0
2.4478626 0.091212049 -0.010077635 0
2.343132 0.031099834 0.0022415025 0
2.4857225 0.044324305 0.00029779371 0
2.4848959 0.043280028 -0.00083888159 0
2.4844592 0.042633928 -0.0019422724 0
2.484267 0.042387813 -0.0029579855 0
2.4840355 0.042132944 -0.0039704232 0
2.4838457 0.041885547 -0.0049872468 0
2.4836476 0.041633382 -0.0060057873 0
2.4835584 0.041563634 -0.0070029045 0
2.4834647 0.041414358 -0.0080217989 0
2.4833982 0.041349918 -0.0090252198 0
2.4832726 0.04119096 -0.010043574 0
2.483115 0.041026901 -0.011053205 0
2.4829142 0.040771425 -0.012083271 0
2.482542 0.040320311 -0.013124598 0
2.482091 0.039862778 -0.014127968 0
2.4814572 0.039120987 -0.015177659 0
2.4807062 0.038464554 -0.015998874 0
2.4173021 0.09315072 -0.0050764238 0
2.365643 0.0038396642 0.022039874 0
2.3746982 0.11067504 -0.011722052 0
2.346319 0.021057926 0.0089621805 0
2.3471513 0.021821819 0.0070240926 0
2.3670974 0.062225349 0.020273618 0
2.3348942 0.078809276 -0.045168478 0
2.3492041 0.061969198 -0.0062855906 0
2.3548322 0.0673986 0.02510874 0
2.3626826 0.062271915 0.0031462272 0
2.3427033 0.070988595 -0.034209386 0
2.4110758 0.00017544255 0.025032429 0
2.3698981 0.11862043 -0.023508376 0
2.3430369 0.069068938 -0.038284406 0
2.3448679 0.06869033 -0.028211929 0
2.4835262 0.043805726 0.044105861 0
2.4839163 0.044237267 0.04315621 0
2.4842396 0.04457356 0.042198654 0
2.4845467 0.04490361 0.04122955 0
2.4849715 0.045413051 0.040250201 0
2.3644679 0.064029418 0.010264439 0
2.3332155 0.083873078 -0.057084497 0
2.3423104 0.070532314 -0.018202852 0
2.3318889 0.084830686 -0.057130672 0
2.3331604 0.073405713 -0.051837958 0
2.3378711 0.075057209 -0.032194998 0
2.3942676 -0.0040574893 0.027900038 0
2.3300602 0.085083663 -0.055116002 0
2.3464692 0.065873273 -0.016240265 0
2.3661859 0.061290938 0.02421701 0
2.3664405 0.12174564 -0.023667658 0
2.4671142 0.087061547 -0.0048572244 0
2.3563907 0.068988293 0.01720194 0
2.3631749 0.020000573 0.033179786 0
2.3843436 0.019288339 -0.015505677 0
2.5008297 0.064064249 0.025322713 0
2.5009849 0.064183943 0.024337593 0
2.5011163 0.064303622 0.023349216 0
2.5012999 0.064525582 0.022361558 0
2.501368 0.064553306 0.021365926 0
2.5015156 0.064778656 0.020376671 0
2.5014975 0.064820737 0.019373292 0
2.5014582 0.06475994 0.018372562 0
2.5014498 0.064802773 0.017374735 0
2.50138 0.064747259 0.016373435 0
2.5012167 0.064604469 0.015368128 0
2.5010843 0.064456761 0.014359595 0
2.5009904 0.064405911 0.013365058 0
2.5007074 0.063972279 0.012333776 0
2.5005488 0.06382934 0.011340393 0
2.5000679 0.063218758 0.010302953 0
2.4995818 0.062692508 0.0092893131 0
2.499063 0.062281676 0.0083405394 0
2.4981132 0.061283834 0.0073316828 0
2.4515057 0.09206637 -0.0079685645 0
2.3913162 0.058488794 -0.011215321 0
2.4487665 0.091443509 -0.0095653515 0
2.4580019 0.092762873 -0.0034599234 0
2.4854667 0.045814581 3.38885e-05 0
2.4846792 0.044998545 -0.00091880013 0
2.484133 0.044547081 -0.001841887 0
2.4837642 0.043920688 -0.0029617201 0
2.4835002 0.043663848 -0.0039511039 0
2.4833138 0.043413211 -0.0049648341 0
2.4832354 0.043271869 -0.0059805503 0
2.4831846 0.043371622 -0.0069472031 0
2.4831004 0.043224074 -0.0079634422 0
2.4830317 0.043160301 -0.0089682033 0
2.4829111 0.043006741 -0.0099788941 0
2.4827797 0.042852771 -0.010994728 0
2.4826348 0.04269097 -0.012009895 0
2.4823916 0.042430211 -0.013022354 0
2.4820435 0.042063445 -0.014022876 0
2.4814103 0.041239329 -0.015138651 0
2.4806228 0.040398121 -0.016132228 0
2.4592934 0.094766103 7.3289848e-05 0
2.4198446 0.058253393 -0.027421191 0
2.3623567 0.020785846 -0.0014571878 0
2.3473258 0.064501867 -0.019267572 0
2.345937 0.020698369 0.0099274302 0
2.3467035 0.021415703 0.0079994537 0
2.3473268 0.064531446 -0.01826342 0
2.3739674 0.11412307 -0.01669451 0
2.3358226 0.077555783 -0.042167127 0
2.40028 -0.0051558129 0.022489969 0
2.3412843 0.071822986 -0.043226402 0
2.3412826 0.071835637 -0.044222258 0
2.3491504 0.061918169 -0.004293676 0
2.3345771 0.078537367 -0.044171948 0
2.345191 0.066791415 -0.032300398 0
2.4589 0.01333017 0.054938368 0
2.3985198 -0.006237071 0.019826461 0
2.3547368 0.065097883 0.030026758 0
2.3584116 0.06220708 0.030008955 0
2.3552783 0.018222012 0.0081747193 0
2.3273215 0.075570926 -0.049981326 0
2.3344877 0.034340881 0.019012468 0
2.3504305 0.09188018 -0.007380838 0
2.3630145 0.021362972 -0.0024210254 0
2.3553507 0.018190112 0.024194241 0
2.3538809 0.021812301 0.048852637 0
2.3433385 0.069332212 -0.016211806 0
2.3690548 0.119946 -0.022750221 0
2.3320315 0.084953874 -0.058112454 0
2.3542879 0.01729906 0.021117618 0
2.3482044 0.063163459 -0.013287118 0
2.3358197 0.064190246 -0.036995552 0
2.3302124 0.085311458 -0.056092307 0
2.3671687 0.062366661 0.010290302 0
2.3387842 0.073733918 -0.026204076 0
2.3660166 0.084855996 0.0031165699 0
2.335428 0.080977857 -0.059211552 0
2.3437366 0.067499176 -0.011269877 0
2.4663713 0.090404525 -0.00078475405 0
2.5009191 0.06622602 0.026415873 0
2.5011859 0.066537142 0.025431573 0
2.501415 0.066848613 0.024444818 0
2.5014858 0.066879258 0.023450786 0
2.5016055 0.067005754 0.022459611 0
2.5017433 0.067226574 0.021467177 0
2.5018315 0.067358889 0.020472638 0
2.5018067 0.067297369 0.019469121 0
2.5017674 0.06723997 0.018466424 0
2.5016735 0.067187928 0.017462917 0
2.5014701 0.066946387 0.016449314 0
2.5012934 0.066704243 0.01543307 0
2.5012231 0.066650271 0.014430289 0
2.501087 0.066501282 0.013422329 0
2.5010176 0.066544734 0.012440394 0
2.5007789 0.066211075 0.011423155 0
2.5004561 0.065881602 0.010420484 0
2.5000858 0.065460801 0.0094122663 0
2.499594 0.064955041 0.0084141763 0
2.4989939 0.064361811 0.0074340994 0
2.4982235 0.063452765 0.00638289 0
2.4497025 0.091616675 -0.009004117 0
2.4506061 0.091844507 -0.0084916726 0
2.444375 0.089881241 -0.01175882 0
2.4126453 0.085725829 -0.0070895157 0
2.3433485 0.069397762 -0.036253896 0
2.4849555 0.047684528 -0.00070930494 0
2.4844983 0.047240317 -0.0016962392 0
2.4839902 0.046595864 -0.0027787676 0
2.4835725 0.0460479 -0.0038341084 0
2.4831288 0.045406565 -0.0049009277 0
2.4829009 0.045061946 -0.0059285117 0
2.4827647 0.044908136 -0.0069378959 0
2.482655 0.044850629 -0.0079296771 0
2.4825604 0.044707619 -0.0089509636 0
2.48247 0.04464427 -0.0099553792 0
2.4823289 0.044493701 -0.010970694 0
2.4821968 0.044344325 -0.011987487 0
2.4820316 0.044179074 -0.012996305 0
2.4817472 0.043898892 -0.013992067 0
2.4813972 0.043524761 -0.01498383 0
2.4807806 0.042795308 -0.016041024 0
2.4347005 0.08777868 -0.011626789 0
2.4474542 0.00079940073 -0.028182553 0
2.3998919 -0.0022976696 0.029758118 0
2.4661374 0.090143487 -0.0017936665 0
2.3370008 0.057602536 -0.020161273 0
2.3397689 0.041077256 0.0015275688 0
2.343138 0.021749377 0.03189474 0
2.3739557 0.11409546 -0.017742291 0
2.3405597 0.07335069 -0.049187478 0
2.3405561 0.073283836 -0.028166231 0
2.3746641 0.10678758 -0.01004249 0
2.3412354 0.071776465 -0.045227088 0
2.3350554 0.079005651 -0.046141688 0
2.3715553 0.11597428 -0.016745364 0
2.3711178 0.11551506 -0.015808243 0
2.4621687 0.094153628 0.0012171958 0
2.3350279 0.081202969 -0.053065766 0
2.3556645 0.068245329 0.021156356 0
2.3562799 0.017860506 0.041449275 0
2.3605402 0.028266229 0.053210765 0
2.3545218 0.064883202 0.031024635 0
2.4658091 0.089778982 -0.0028024074 0
2.3680863 0.061168104 0.0062621152 0
2.3683453 0.06137858 0.0072950302 0
2.4578202 0.09771806 0.028229313 0
2.3665736 0.061795861 0.022342239 0
2.3590059 0.064983219 0.021103974 0
2.353337 0.016796544 0.036060277 0
2.3439815 0.070026733 -0.027178163 0
2.366909 0.062067654 0.021150641 0
2.3689592 0.11964881 -0.02372974 0
2.4654214 0.089345112 -0.0038299244 0
2.3657894 0.011185948 0.0003126245 0
2.4050016 -0.003389176 0.023618774 0
2.4548519 0.0099858046 0.056625161 0
2.3744087 0.11249013 -0.01579763 0
2.4668095 0.090890825 0.0012483911 0
2.3472712 0.064433321 -0.0232853 0
2.347208 0.064291708 -0.024309069 0
2.4672759 0.091400437 0.0032799109 0
2.5003946 0.067719087 0.028469445 0
2.5008554 0.06830582 0.027486932 0
2.5012093 0.068707541 0.026512187 0
2.5014725 0.069015771 0.025527978 0
2.5015306 0.069050848 0.024534717 0
2.5016894 0.069270931 0.023539698 0
2.5018458 0.06949015 0.022550184 0
2.5019433 0.069616653 0.021555616 0
2.5019758 0.069650829 0.020555619 0
2.5019693 0.06959331 0.019557839 0
2.5019333 0.06962879 0.018556956 0
2.5018542 0.069578633 0.017555892 0
2.5017529 0.069525503 0.016553979 0
2.5015628 0.069288298 0.015542481 0
2.5013814 0.069045894 0.014525252 0
2.5011902 0.068702839 0.013493427 0
2.5010529 0.068555161 0.012485359 0
2.5008759 0.068409815 0.01148873 0
2.5006104 0.068170428 0.010495409 0
2.5002332 0.067747071 0.0094879456 0
2.4996588 0.067051589 0.0084420815 0
2.4991634 0.066540301 0.0074464101 0
2.4984765 0.065848604 0.0064696968 0
2.4977701 0.064951956 0.0053901393 0
2.4969296 0.064074129 0.0042553521 0
2.4589243 0.092925094 -0.0028710216 0
2.444984 0.084784627 -0.015507126 0
2.4677269 0.091899291 0.0053097582 0
2.4139493 0.081667736 -0.011073631 0
2.4846487 0.049532712 -0.0016507662 0
2.4843512 0.049178213 -0.0026862109 0
2.4841366 0.049033277 -0.0036890409 0
2.4839144 0.048781022 -0.0047070347 0
2.4836776 0.048532177 -0.0057219472 0
2.4833131 0.048084103 -0.0067551099 0
2.4828675 0.047532298 -0.0077874297 0
2.4821804 0.046311453 -0.0089514647 0
2.4819579 0.04615495 -0.0099558309 0
2.4817193 0.045922551 -0.010968669 0
2.4814665 0.045681968 -0.011984467 0
2.4812329 0.045494359 -0.01295571 0
2.4809988 0.045233194 -0.013968416 0
2.4806666 0.044824041 -0.015050444 0
2.480211 0.04432993 -0.016018307 0
2.4793689 0.043377526 -0.017015597 0
2.4520755 0.088598937 -0.010925583 0
2.4845507 0.082866877 0.0097564645 0
2.3406115 0.073384881 -0.050184567 0
2.4943464 0.079907998 0.0070692422 0
2.404835 0.06155958 -0.017234527 0
2.3367841 0.032708377 0.033052947 0
2.3431818 0.021793954 0.03089729 0
2.3431907 0.021798141 0.029901925 0
2.3734899 0.11391901 -0.018670972 0
2.340888 0.071429849 -0.019190315 0
2.3405151 0.073226713 -0.027171679 0
2.3746145 0.10644103 -0.0090721967 0
2.3746536 0.10628701 -0.0079856114 0
2.3352842 0.079223752 -0.047131896 0
2.3720787 0.11651421 -0.018689761 0
2.3718243 0.11626909 -0.017700572 0
2.3352957 0.081465095 -0.055058103 0
2.3351679 0.081342354 -0.054058611 0
2.4061441 0.005388245 0.038314749 0
2.3554263 0.068004683 0.022140015 0
2.3418498 0.070164651 -0.046264544 0
2.3373425 0.074515894 -0.028224789 0
2.3542867 0.06684275 0.02708438 0
2.3587637 0.062575512 0.029052319 0
2.3679035 0.060960464 0.0052600075 0
2.3703537 0.061217513 0.0093488721 0
2.3610656 0.067160994 0.011267951 0
2.399065 -0.0026103593 0.029242542 0
2.3434932 0.069554999 -0.035239417 0
2.4012599 0.055438995 -0.017495226 0
2.3564572 0.019863594 0.046196938 0
2.3958335 0.0065513141 0.042113729 0
2.3520088 0.068932176 0.028080696 0
2.3422561 0.070558205 -0.040241167 0
2.3655009 0.082224101 0.0029696506 0
2.3470831 0.064255089 -0.0082709529 0
2.3471313 0.064309105 -0.009264308 0
2.3472486 0.064432248 -0.010258678 0
2.344857 0.068670049 -0.020191191 0
2.3666482 0.085456565 0.0011091864 0
2.3447599 0.066179782 -0.009255169 0
2.5004923 0.070019424 0.028541086 0
2.5009356 0.070511103 0.027579952 0
2.5012889 0.070912883 0.026602088 0
2.501509 0.071221277 0.025605122 0
2.5016317 0.071346968 0.024614712 0
2.5016706 0.071387827 0.023613662 0
2.5018158 0.071599662 0.022622315 0
2.5019271 0.071722984 0.021628559 0
2.5019653 0.071761318 0.020630807 0
2.5019727 0.071794361 0.019631777 0
2.5019929 0.071829662 0.018633846 0
2.5019174 0.071770683 0.017630054 0
2.5018427 0.071716771 0.01662996 0
2.50176 0.071568027 0.015618321 0
2.501651 0.071421579 0.014608704 0
2.5015161 0.071364917 0.013615713 0
2.5012705 0.071029194 0.012595726 0
2.5010228 0.070787981 0.011596937 0
2.5006802 0.070365429 0.010569803 0
2.500299 0.069940485 0.00956167 0
2.4998307 0.069424361 0.0085521992 0
2.4992373 0.068729863 0.0075140847 0
2.4986203 0.068033144 0.006493059 0
2.4980147 0.067334861 0.0054706549 0
2.4973657 0.06654641 0.0044177207 0
2.4965069 0.065537617 0.0033675134 0
2.4601953 0.09485326 0.00070654438 0
2.3586936 0.019738831 0.029911734 0
2.486156 0.053516533 -0.00030347786 0
2.4848015 0.051913723 -0.0015354094 0
2.4844491 0.051468804 -0.0026061505 0
2.4842556 0.051309578 -0.0036072519 0
2.4841189 0.051055878 -0.0046474459 0
2.4840252 0.050994307 -0.0056460085 0
2.4838068 0.050739661 -0.0066634635 0
2.4835832 0.050491124 -0.0076776659 0
2.4833741 0.050444361 -0.0086378949 0
2.4830589 0.049997196 -0.0096696755 0
2.4825199 0.049475063 -0.010664122 0
2.4811075 0.04728394 -0.012024344 0
2.4805584 0.046705388 -0.013083919 0
2.4801059 0.046381608 -0.013973931 0
2.4795475 0.045884985 -0.015114591 0
2.479147 0.045292284 -0.016039323 0
2.4783962 0.044437341 -0.017046379 0
2.417702 0.087322801 -0.010403674 0
2.4152272 0.061412338 -0.019264834 0
2.4441102 0.084482521 -0.015962301 0
2.4320951 0.06666702 -0.028205153 0
2.4041092 0.06065695 -0.017132185 0
2.340925 0.027189687 0.008990109 0
2.3430884 0.021704897 0.032891713 0
2.3624437 0.022049159 0.044454787 0
2.3403926 0.073116928 -0.026173348 0
2.3742557 0.10669991 -0.010898631 0
2.3448939 0.066464677 -0.010263728 0
2.3354378 0.079389222 -0.048115235 0
2.3491635 0.061936274 -0.0082897237 0
2.3722813 0.11668277 -0.019709397 0
2.4649503 0.095083803 0.019330759 0
2.3272226 0.044403549 0.013152722 0
2.3242092 0.080501705 -0.054860778 0
2.3552196 0.067793936 0.023135299 0
2.3419988 0.070280425 -0.043267921 0
2.3465023 0.065906219 -0.019237692 0
2.3315864 0.084432602 -0.055070192 0
2.3596022 0.063411765 0.024088018 0
2.3552048 0.017984629 0.023201421 0
2.3687248 0.0083542764 -0.0017095811 0
2.3609235 0.067013338 0.012373608 0
2.4022882 -0.0010789856 0.031099427 0
2.3423994 0.068424545 -0.045319606 0
2.3609736 0.022462994 0.046795689 0
2.3443108 0.019195646 0.017829951 0
2.3431966 0.069177948 -0.015228475 0
2.3517582 0.068668649 0.029054284 0
