# .PCD v0.7 - Point Cloud Data file format
VERSION 0.7
FIELDS x y z
SIZE 4 4 4
TYPE F F F
COUNT 1 1 1
WIDTH 1440
HEIGHT 1
VIEWPOINT 0 0 0 1 0 0 0
POINTS 1440
DATA ascii
2.4100652 0.019935254 0.043866601
2.4107866 0.020634223 0.0437591
2.4115078 0.021320116 0.043341901
2.4122317 0.021994341 0.042785998
2.4129899 0.022668008 0.0422104
2.4136896 0.023399364 0.042343602
2.414376 0.024124926 0.042747501
2.4150693 0.024847593 0.0430145
2.4157622 0.025557099 0.043173399
2.4164641 0.026263149 0.043177001
2.4171684 0.026963536 0.042995699
2.4178836 0.027655372 0.042750899
2.418618 0.028338786 0.042404599
2.4193335 0.029029848 0.042130601
2.4200616 0.029719276 0.041900199
2.4207857 0.030411951 0.041654099
2.4215126 0.031106407 0.041415699
2.4222443 0.031803332 0.041217901
2.4229476 0.032533556 0.041086301
2.4236498 0.03313043 0.0410957
2.4242597 0.033785276 0.041882601
2.3389354 0.059952829 0.0152923
2.3904376 0.012172133 0.042920198
2.3428864 0.062796734 0.027180901
2.3340189 0.053193878 0.0124103
2.3388133 0.068374112 -0.017474599
2.351522 0.10281508 -0.0053612902
2.3425906 0.025889724 0.0152364
2.3533361 0.017483994 0.03131
2.4299264 0.041115925 0.0556935
2.4306123 0.041828759 0.0560662
2.4313076 0.042522293 0.056357
2.4319932 0.043267228 0.056671001
2.432693 0.043985717 0.056768999
2.4334087 0.04466942 0.0567092
2.4341161 0.045381829 0.056689199
2.4348087 0.046100039 0.056944899
2.4354978 0.046827439 0.057293098
2.4361851 0.047549888 0.0576654
2.4368591 0.048258271 0.0579243
2.4375811 0.048987214 0.058009099
2.4382932 0.049686112 0.0579153
2.4390092 0.050381098 0.0577101
2.4397044 0.051091343 0.057750698
2.4403968 0.051815134 0.0579843
2.4410858 0.052534949 0.058131602
2.4418011 0.053247351 0.058211301
2.4425161 0.053951506 0.058268301
2.4432323 0.054654915 0.0581499
2.4439535 0.055362709 0.057954598
2.4446838 0.05605711 0.057707001
2.4454248 0.056747552 0.057268299
2.4461505 0.057419579 0.056762598
2.4468861 0.058092039 0.056177501
2.4475977 0.058785245 0.055931401
2.448303 0.059484266 0.055875398
2.4490144 0.060192369 0.0558016
2.4497225 0.060895115 0.055764999
2.4504371 0.061594419 0.0556334
2.4511571 0.06228767 0.055391401
2.4307821 0.093968272 0.036772002
2.4279335 0.091169111 0.037182499
2.3985944 0.059678964 0.0347936
2.3964665 0.057553966 0.034319501
2.4207678 0.08416456 0.040262502
2.4129939 0.076409236 0.040288799
2.3867683 0.051706683 0.032374099
2.3924253 0.057373513 0.0319301
2.3931482 0.058065344 0.032015398
2.4000916 0.065185487 0.033582699
2.4134567 0.078783885 0.039471101
2.4197965 0.085139275 0.039509401
2.4490252 0.10420944 0.0031582001
2.3625124 0.01671664 0.0213496
2.3984864 0.065424278 0.031997401
2.4075387 0.07479924 0.037774
2.3449287 0.046905365 0.046073198
2.3841834 0.052889254 0.029410301
2.4104335 0.096580863 0.0157979
2.3343067 0.056271777 -0.0129034
2.4506505 0.10394399 0.0191762
2.3815548 0.054095864 0.026110901
2.3571007 0.033267744 0.052363701
2.4156523 0.090716414 0.033845998
2.3657098 0.06390471 0.0153991
2.3651285 0.0098323897 0.0103913
2.3516612 0.035896271 0.052899901
2.4125183 0.098056085 0.018138601
2.3492813 0.045339543 0.0488155
2.4084156 0.094618045 0.0104804
2.3977301 0.077947423 0.00332106
2.3378556 0.049700413 0.036757801
2.3520555 0.10036737 -0.0129563
2.3519669 0.07520625 0.0095426701
2.3240666 0.073648423 -0.054008599
2.3745377 0.010885626 -0.0075698099
2.4369731 0.10307955 0.0287048
2.3536892 0.10875803 -0.0077103302
2.3419278 0.061925653 0.0078216102
2.3423615 0.062019911 0.00651001
2.4292204 0.10371326 0.0253956
2.3441715 0.064590812 0.0250316
2.3306637 0.046934988 0.0144746
2.4115229 0.097620666 0.014917
2.3734927 0.016013004 0.034787301
2.348088 0.090406634 -0.0050355801
2.4018095 0.085787304 0.0078845304
2.4011476 0.084752262 0.0074434201
2.3340151 0.053959321 0.0184351
2.3354349 0.055813201 0.0192356
2.3361552 0.056724388 0.0196325
2.3508732 0.016903244 0.0173034
2.3521163 0.070008591 0.0197239
2.333606 0.051215313 0.0089080697
2.4185069 0.044986062 -0.034830201
2.3985615 0.010228582 0.042203099
2.3992503 0.01096369 0.042428799
2.3999612 0.011653684 0.042461999
2.4006705 0.012345873 0.042502999
2.4013524 0.013107002 0.042794
2.4020414 0.013841476 0.0431577
2.4027295 0.014533941 0.043498501
2.4034107 0.015310634 0.043895099
2.4040968 0.01602092 0.0441771
2.4048047 0.016711619 0.044220202
2.4055164 0.017413843 0.044085499
2.4062462 0.018097904 0.043863699
2.4069569 0.018801901 0.0437156
2.40765 0.01952159 0.043807901
2.4083595 0.020225022 0.0439987
2.4090519 0.020945068 0.044079401
2.409795 0.02163358 0.043927498
2.410471 0.02232746 0.0436556
2.4111977 0.022991084 0.043144699
2.4120007 0.023670539 0.042389199
2.412704 0.024366967 0.042173799
2.4133942 0.025098046 0.042522401
2.4140851 0.025819581 0.042816099
2.4147806 0.02654182 0.043047499
2.415478 0.027260024 0.043147799
2.4161646 0.027934326 0.042965099
2.4169085 0.028647654 0.0428361
2.4176042 0.029350234 0.042633601
2.4183347 0.030047229 0.042580899
2.419045 0.030735452 0.042288501
2.4198036 0.031417817 0.041839998
2.4205112 0.03210675 0.041533101
2.4212372 0.032803178 0.041274302
2.4219565 0.033475209 0.0411289
2.4226115 0.034148309 0.041582402
2.423233 0.034914881 0.042796198
2.3370097 0.056402374 0.0270903
2.3480992 0.067629032 0.0238846
2.3502717 0.10041496 -0.0062881201
2.3521552 0.1037764 -0.0048433002
2.4196138 0.04781555 0.052297801
2.4024315 0.085762993 0.022477301
2.3629665 0.017160989 0.02334
2.3659444 0.0087333396 0.0094089098
2.4289119 0.042117398 0.0563065
2.4295969 0.042808104 0.056724198
2.4302809 0.043572132 0.0571361
2.4309704 0.044297412 0.057338201
2.4316995 0.044964992 0.057219099
2.4324162 0.045660853 0.056973401
2.4331241 0.046385285 0.0568709
2.4338219 0.047086097 0.0570677
2.4345083 0.047825735 0.057503201
2.4351931 0.048533477 0.0578104
2.4358954 0.049261935 0.058003601
2.4365971 0.049964275 0.058081701
2.4373081 0.050673693 0.058020301
2.4380264 0.051370248 0.057812199
2.4387393 0.052071381 0.057621799
2.4394414 0.052775793 0.057610702
2.4401402 0.053490147 0.057723101
2.4408488 0.054201193 0.057806998
2.4415598 0.054909069 0.057728902
2.4422741 0.055612482 0.057688501
2.4429913 0.056317996 0.057590399
2.4437194 0.057018563 0.057369299
2.4444261 0.057704993 0.0571866
2.4451773 0.0583966 0.056779101
2.4458969 0.059075795 0.056384999
2.4466228 0.059768643 0.056054302
2.4473367 0.060463469 0.055815399
2.448056 0.061165117 0.055601802
2.4487665 0.061866485 0.055444401
2.4494767 0.062560663 0.055281401
2.4501972 0.063263088 0.055067498
2.4293654 0.092547193 0.0371086
2.4286435 0.091866389 0.037164301
2.3978763 0.058976308 0.034687798
2.3971863 0.058255203 0.034544099
2.4137177 0.077105962 0.040137399
2.4108887 0.074276976 0.0397944
2.4101584 0.073572271 0.039474498
2.3881512 0.053154487 0.032549199
2.3987765 0.063728847 0.032510798
2.4007809 0.065911472 0.034327898
2.4127324 0.078087881 0.039284401
2.4219403 0.087233618 0.038749699
2.452034 0.10326438 0.0021758301
2.3509507 0.10290566 -0.0069286199
2.3977602 0.064722262 0.031539999
2.4082353 0.075511299 0.037908901
2.3537979 0.087499589 0.0042109299
2.3855367 0.054347165 0.029717101
2.3351467 0.055336766 0.0205089
2.3489857 0.047053289 0.0477493
2.3714781 0.096588172 -0.00302445
2.3808208 0.053469218 0.027050801
2.3578064 0.034003351 0.0526576
2.4149549 0.089997947 0.0338316
2.3631279 0.015342519 0.00736881
2.3814707 0.058497738 -0.0083462298
2.3523684 0.036616251 0.053034399
2.3454888 0.053388044 0.042162299
2.3976214 0.060651943 0.033659998
2.3476388 0.021209382 0.0092705498
2.4159906 0.10058516 0.015412
2.3371861 0.04897435 0.0362335
2.4678741 0.095655635 0.00117592
2.4289746 0.10313074 0.026603101
2.3655868 0.017739326 0.027350901
2.3708417 0.090951398 -0.0035979401
2.3522339 0.11055268 -0.010558
2.4244199 0.098068282 0.0313235
2.3408 0.054661687 0.036663398
2.3802512 0.058072761 0.0201433
2.4255137 0.10283214 0.0241901
2.4282672 0.10357891 0.0251042
2.3811371 0.05977647 0.019299099
2.4072595 0.088232078 0.028706299
2.4131303 0.098844863 0.015645999
2.3937118 0.064425774 0.026742499
2.4080932 0.094189458 0.0117114
2.4073665 0.093454547 0.0113306
2.3943298 0.061440229 0.030639401
2.3333788 0.052806731 0.0180021
2.3660688 0.016104143 -0.000625527
2.3599408 0.024323344 -0.0028391599
2.3528402 0.017044313 0.034312401
2.4299181 0.1052013 0.018828301
2.4308755 0.10531733 0.0191129
2.3960607 0.0098393895 0.042224001
2.3968406 0.010512698 0.042622901
2.3975101 0.011295326 0.043044101
2.3982151 0.011988502 0.043213099
2.3989189 0.012706216 0.043180499
2.3996506 0.013370115 0.043015901
2.400346 0.014102187 0.0430854
2.4010408 0.014833048 0.0433033
2.4017303 0.015563205 0.043688901
2.4024141 0.016286649 0.0440851
2.403096 0.017003935 0.044500399
2.4037764 0.017757643 0.044782698
2.4044793 0.018449474 0.044832502
2.4051986 0.019135579 0.0446207
2.4059174 0.019834768 0.044311401
2.4066739 0.020505462 0.044059198
2.4073513 0.021221478 0.044061001
2.4080842 0.021922436 0.044039
2.4087813 0.022632722 0.043996099
2.4095082 0.02332681 0.0437565
2.4101961 0.024010371 0.0433941
2.4109647 0.024689339 0.042675499
2.411716 0.025367171 0.042222001
2.4124167 0.026067562 0.042252801
2.4131141 0.026780609 0.0423542
2.413805 0.027501082 0.042615999
2.4145021 0.02821066 0.042777099
2.4152074 0.02894789 0.042907398
2.4158914 0.029668434 0.0431634
2.4165835 0.030380627 0.043282501
2.4172852 0.031076491 0.043135699
2.4180253 0.031749025 0.042656802
2.4187949 0.032425154 0.042094398
2.4195297 0.033102214 0.041584201
2.4202261 0.033825438 0.041453499
2.4209514 0.034466576 0.0412906
2.4215808 0.035146177 0.0419758
2.4222088 0.036005378 0.043637801
2.3474059 0.067716151 0.019370699
2.3305039 0.046141755 0.0216964
2.3311572 0.047520615 0.022135099
2.4003949 0.082763381 0.021205001
2.3925133 0.069982849 0.015980501
2.3627687 0.016954791 0.022352399
2.3934383 0.065948457 -0.0070074899
2.3534365 0.11430925 -0.0170667
2.4279196 0.043118734 0.056655601
2.4285958 0.043837227 0.057167601
2.4292848 0.044565897 0.057503801
2.4299819 0.045276754 0.0576296
2.4306958 0.045974948 0.0575151
2.4314375 0.046661336 0.057116698
2.4321408 0.047357559 0.0569355
2.4328294 0.048080716 0.057300899
2.4335153 0.048794042 0.057591699
2.4342103 0.049514301 0.057835501
2.4349155 0.050239231 0.0580111
2.4356203 0.05094729 0.058030799
2.4363308 0.051652886 0.0579523
2.4370482 0.052346639 0.057757799
2.4377763 0.053033616 0.057324301
2.4384806 0.053740706 0.0573318
2.439177 0.054451965 0.0573962
2.4398863 0.055162545 0.057470001
2.4405932 0.055872876 0.057495698
2.4413054 0.056577329 0.057449199
2.4420249 0.057280239 0.057353601
2.4427357 0.057987306 0.057347301
2.4434521 0.058687825 0.0572224
2.4441757 0.059380922 0.056992698
2.4448936 0.060074244 0.056735002
2.4456134 0.060769398 0.0565046
2.4463513 0.061463013 0.0561869
2.4470496 0.062154658 0.055875398
2.4477859 0.062850758 0.055560499
2.448518 0.063547321 0.055221502
2.4435949 0.10476155 0.0237708
2.380676 0.043703862 0.034302901
2.4024558 0.065674312 0.036083899
2.4017255 0.064946979 0.035366699
2.4115844 0.074992597 0.040049799
2.4236243 0.086954765 0.039253499
2.4010341 0.064224526 0.0346209
2.4167833 0.078278162 0.041302599
2.3927188 0.055670299 0.032773402
2.3980501 0.06303525 0.0324113
2.4014761 0.066639155 0.034949999
2.4120574 0.077359073 0.039344501
2.423373 0.088615179 0.038095199
2.3689513 0.020530988 -0.0065923701
2.3617291 0.030056067 0.052424401
2.4650199 0.094466917 -0.0067950101
2.4089596 0.076213099 0.038121998
2.3750634 0.10443055 -0.0103051
2.3834648 0.052195933 0.029059101
2.4026546 0.079851374 0.029835099
2.347733 0.049715046 0.0458217
2.4077098 0.093702868 0.0100563
2.4305131 0.10508936 0.0203849
2.35851 0.034725171 0.052983999
2.4141524 0.089346521 0.0337357
2.3665967 0.014755271 -0.00061053497
2.349123 0.0263649 0.00027906999
2.3530803 0.037322585 0.053122699
2.34811 0.020004891 0.0382795
2.3577268 0.029850796 0.0507273
2.3295348 0.043871664 0.0181181
2.3364828 0.048252825 0.035351299
2.3664978 0.02509331 0.0469767
2.3550847 0.035314821 0.053286199
2.4296277 0.090876296 0.037895098
2.3545015 0.092417434 0.00175297
2.3406804 0.050873436 -0.0078672199
2.341054 0.064307407 -0.0078276498
2.341552 0.053986758 0.038219601
2.3363366 0.05545187 0.0266851
2.4227867 0.10198162 0.023263499
2.3467183 0.065047391 0.0301734
2.3384902 0.059161294 0.0237254
2.4019158 0.078930154 0.0294386
2.4139531 0.09940169 0.0160037
2.3379891 0.066858359 -0.0137578
2.4088144 0.095090277 0.0121378
2.3308895 0.047865186 0.016223
2.3315282 0.049216818 0.016690301
2.3855951 0.063426696 -0.0036679001
2.3336332 0.061361171 -0.0329547
2.4270937 0.10466516 0.017945901
2.4280131 0.10490997 0.018249299
2.4289403 0.10512592 0.018553
2.3921108 0.068488598 0.018444199
2.393682 0.070035815 0.019278999
2.3951247 0.010827363 0.042854302
2.3958039 0.01157527 0.043341599
2.3964992 0.012276221 0.0436415
2.3971839 0.013024837 0.043822002
2.3979092 0.013702881 0.043767899
2.3986135 0.014411826 0.043597799
2.3993285 0.015124023 0.043416601
2.4000409 0.015826959 0.043443799
2.4007339 0.016545448 0.043717001
2.401422 0.01729732 0.044169098
2.4020977 0.018027827 0.044689
2.4027815 0.018761665 0.045038
2.4034724 0.019466296 0.045193601
2.4041772 0.020162657 0.045060098
2.4049022 0.020836171 0.044714101
2.4056604 0.021515068 0.044272099
2.4063714 0.022215813 0.044138301
2.4070802 0.022923198 0.044146001
2.4077814 0.023631722 0.044113599
2.4085205 0.024326526 0.0439119
2.4092219 0.025018498 0.043601099
2.4099674 0.025691167 0.0431013
2.4107065 0.026367661 0.042470701
2.4114301 0.027058786 0.042266
2.4121394 0.027759457 0.0420871
2.4128356 0.028499443 0.042383701
2.4135125 0.029234976 0.042912301
2.4141908 0.029981047 0.043384399
2.4148746 0.030698899 0.0436414
2.4155715 0.031397514 0.043653801
2.4162958 0.032081436 0.0434567
2.4169967 0.032762662 0.043142699
2.4177434 0.033435471 0.0425242
2.4185143 0.034118678 0.0419617
2.4192312 0.034819987 0.041640799
2.4199417 0.035499021 0.0416031
2.4205496 0.03608875 0.042049099
2.421186 0.037028849 0.044143699
2.3638062 0.014113151 0.0073644002
2.3639703 0.014264535 0.0063599502
2.3537645 0.01794488 0.029322499
2.362258 0.016476508 0.020349
2.363668 0.01398332 0.0083756996
2.3641498 0.014421299 0.0053605698
2.3685772 0.0092461929 0.00241821
2.4076707 0.09338668 0.0070966599
2.4269364 0.044099987 0.056783799
2.4276056 0.044818975 0.057289999
2.4283023 0.045552243 0.057614099
2.4289999 0.046250507 0.057684399
2.4297221 0.046946801 0.057413802
2.4304774 0.047632903 0.0569929
2.4311545 0.048343476 0.057034601
2.4318457 0.049061328 0.057314601
2.4325457 0.049782224 0.057534099
2.4332373 0.050493926 0.0576973
2.4339373 0.051210087 0.057842702
2.434648 0.051923305 0.057844099
2.4353595 0.052625615 0.0577964
2.4360762 0.053306177 0.057501499
2.4368596 0.054031238 0.0570838
2.4375167 0.054707564 0.057020299
2.4382045 0.055422097 0.057275798
2.4389086 0.056140654 0.057445899
2.4396131 0.056853004 0.057549398
2.4403226 0.057558835 0.0574954
2.4410353 0.058262467 0.0574621
2.441746 0.058971651 0.057466801
2.4424646 0.059674021 0.057376701
2.443181 0.060372941 0.057244401
2.4438927 0.061075501 0.057102401
2.4446244 0.061774403 0.056909401
2.4453361 0.062467355 0.056631599
2.4460561 0.063154742 0.0562471
2.3435161 0.059965692 0.0340661
2.4272237 0.090456493 0.0374065
2.3495598 0.026770707 -0.00071908103
2.4049895 0.090483472 0.014241
2.3560195 0.030092273 0.050917201
2.4122746 0.075709485 0.040195201
2.4556248 0.10302963 0.0071659698
2.4300652 0.093276501 0.036920901
2.4181857 0.079697564 0.041550402
2.4175124 0.07897605 0.0414823
2.3888564 0.053871136 0.032566201
2.4547539 0.071374014 0.0515958
2.4022274 0.067358002 0.0355266
2.4113114 0.076676719 0.039300401
2.4226556 0.087930538 0.0384917
2.3554313 0.074576497 0.0103413
2.3941867 0.070827708 0.00054900302
2.3964124 0.063275307 0.0309781
2.4040921 0.071185783 0.035724301
2.35132 0.082922757 0.0054516802
2.3827517 0.051531114 0.028980801
2.344568 0.041122567 -0.00281163
2.3484385 0.050413746 0.045570198
2.3414466 0.043898247 -0.00082821201
2.3738351 0.11375229 -0.023747999
2.3592114 0.035433829 0.053235602
2.4694161 0.088821098 -0.0097924098
2.4184103 0.094595946 -0.0082418099
2.4636953 0.099413127 0.0061707902
2.3537934 0.038024243 0.052993499
2.3462093 0.054064665 0.042003099
2.3618963 0.034149013 0.053565301
2.4563615 0.099594511 -0.0048092799
2.4643855 0.098097131 0.0191589
2.389405 0.050492376 0.034676999
2.459497 0.098948203 0.025164699
2.4508846 0.10415704 0.016165899
2.3538172 0.091752902 0.00236894
2.4581969 0.1016758 0.0031795599
2.3865688 0.065867141 0.0045724902
2.3389974 0.064479575 -0.0083276499
2.3400242 0.064414598 -0.0080691297
2.3451061 0.065926954 0.021237999
2.419961 0.10145554 0.022384699
2.3450959 0.063870475 0.029469499
2.3827863 0.063297793 0.0146907
2.3481591 0.065361068 0.032114301
2.4173622 0.1011705 0.017347701
2.3369608 0.066926032 -0.0140168
2.4095514 0.095896676 0.0125385
2.3303306 0.046473242 0.0157593
2.3351562 0.070778139 -0.058026101
2.3914757 0.066761769 -0.0012542401
2.425241 0.10422952 0.0173475
2.4261553 0.10448047 0.0176515
2.3384233 0.058914714 0.00171291
2.3390434 0.059571482 0.00211062
2.4256604 0.068604864 0.045133401
2.3365054 0.067951187 -0.0167503
2.3374939 0.068000689 -0.016473999
2.3941021 0.01188137 0.043443002
2.3947837 0.012584876 0.043870799
2.3954763 0.013321396 0.044086099
2.3961697 0.014041018 0.044184498
2.3968916 0.014724575 0.0441176
2.3975961 0.015431825 0.0439406
2.3983266 0.016116947 0.043735601
2.3990321 0.016831543 0.043694101
2.3997374 0.017550673 0.043814398
2.4004281 0.018278357 0.044198502
2.4011087 0.019018129 0.044690099
2.4017911 0.019740298 0.045083899
2.4024847 0.020450022 0.045240398
2.4032078 0.021133725 0.045048799
2.4039218 0.021836873 0.044899002
2.4046388 0.022535704 0.044776201
2.4053409 0.023245286 0.044762
2.4060678 0.023939524 0.0446801
2.4067819 0.024641752 0.044545699
2.4074831 0.025343977 0.044379901
2.4081988 0.026045784 0.044249799
2.4089227 0.026724961 0.0437099
2.409663 0.027391337 0.043063201
2.4103973 0.028080272 0.042675901
2.4111383 0.028770834 0.042288501
2.4118292 0.02949363 0.042551599
2.4125082 0.030245434 0.0431634
2.4131944 0.030974744 0.043543201
2.413882 0.031692807 0.043783799
2.4145803 0.032389734 0.043825202
2.4152901 0.033083543 0.043701001
2.4160008 0.033754803 0.043273501
2.4167659 0.034432143 0.0425625
2.41752 0.035107922 0.0419572
2.4182413 0.035801589 0.0417023
2.4189377 0.036487561 0.0417649
2.4195511 0.037134208 0.042375199
2.4202034 0.038157817 0.044730902
2.3268304 0.076470278 -0.0580176
2.3664222 0.0091657974 0.0073994999
2.3661239 0.0088859238 0.0084162699
2.3663132 0.012685705 0.0023928401
2.3643847 0.014637962 0.0044678301
2.3664355 0.0074227825 0.0183885
2.3663478 0.0073387772 0.017394099
2.4069765 0.092460416 0.0066723502
2.4259601 0.045071129 0.056671299
2.4266343 0.045797043 0.0571688
2.4273307 0.046515889 0.0574008
2.4280219 0.0472278 0.057573602
2.4287663 0.047949761 0.057229798
2.4294736 0.0486027 0.056851901
2.4301739 0.049319357 0.056981999
2.4308653 0.050034873 0.057230499
2.4315689 0.050756264 0.057418998
2.4322722 0.051469736 0.0575311
2.432971 0.05217981 0.057589099
2.4336777 0.052893154 0.057606202
2.4343896 0.053598721 0.0575382
2.4351141 0.054288968 0.057298101
2.4358354 0.05497263 0.056908701
2.4365389 0.055683769 0.056976501
2.4372222 0.056402981 0.0572857
2.4379277 0.057119336 0.057460599
2.4386206 0.057837602 0.057540201
2.4393389 0.058539584 0.057502899
2.4400485 0.059247624 0.0575088
2.4407582 0.059955049 0.0575158
2.4414642 0.060662393 0.057542901
2.442178 0.061365236 0.057448301
2.4428935 0.062069364 0.057336401
2.4436224 0.062770717 0.057145901
2.44434 0.063464835 0.056881599
2.4450643 0.064152323 0.056508102
2.4117048 0.097484246 0.0177838
2.3647358 0.014918115 0.00337687
2.4508777 0.10412748 0.0171641
2.4510479 0.10433028 0.0121653
2.3677325 0.033987511 0.052532699
2.3641896 0.030445967 0.052661501
2.3578284 0.017764784 0.00628888
2.3825488 0.04747593 0.032389201
2.4354341 0.10438034 0.025784399
2.4526381 0.10398296 0.0091647003
2.4530745 0.071666688 0.051403102
2.4537981 0.072356395 0.051045701
2.4545193 0.0730244 0.050748602
2.4264991 0.089729019 0.037975799
2.4212205 0.086548984 0.0389072
2.4501736 0.10118903 -0.0048284298
2.4103212 0.096577525 0.0129125
2.3970971 0.06399253 0.031246001
2.4047463 0.071916223 0.036145601
2.396883 0.07540071 0.021386201
2.3820534 0.050838292 0.029359899
2.4151313 0.10018947 0.0150885
2.3515613 0.1040309 -0.0064512799
2.3502312 0.061008465 -0.017578799
2.4584546 0.10196345 0.0081648501
2.3599131 0.036145389 0.053279299
2.3371737 0.076689057 -0.059693199
2.3677423 0.00680428 0.021382101
2.4637105 0.099440217 0.00716634
2.3545041 0.03874068 0.052800901
2.343219 0.06948477 -0.0345941
2.3398337 0.060178116 0.0024713399
2.412354 0.08552593 0.035765201
2.4643033 0.098001391 0.0201582
2.4509397 0.1020611 -0.00183322
2.4109902 0.084074453 0.035946801
2.3531263 0.091047987 0.00277528
2.3524058 0.090318821 0.0028667401
2.3303721 0.064101987 -0.019162999
2.3370674 0.064246446 -0.0088794101
2.3380256 0.064393163 -0.0085881697
2.3500686 0.068096638 0.027419699
2.4172983 0.10041489 0.021419499
2.3442483 0.063392185 0.0291369
2.381969 0.062787473 0.0143467
2.4182465 0.10152993 0.017668599
2.3342052 0.066191345 -0.0149268
2.4118538 0.098022357 0.013682
2.3386531 0.060456917 -0.00073859998
2.3718274 0.010313224 -0.00460929
2.4234314 0.1036405 0.0167214
2.4243453 0.10390636 0.0170274
2.408874 0.085360996 0.032822002
2.3350475 0.050303571 0.0312004
2.3337696 0.067440242 -0.017588999
2.3346021 0.067667216 -0.017328201
2.3355243 0.067900851 -0.017025899
2.421514 0.045897383 0.0537722
2.3599308 0.028290071 0.050662
2.3930144 0.012788802 0.043768302
2.3937738 0.013617743 0.044207402
2.3944709 0.014318272 0.044362199
2.3951795 0.015020642 0.044385102
2.3958819 0.01573249 0.044361699
2.3965991 0.016430117 0.044255301
2.3973098 0.01713369 0.0441029
2.3980408 0.017814003 0.043926299
2.3987348 0.01854232 0.043969199
2.3994317 0.019264698 0.044209201
2.4001229 0.020015012 0.0446514
2.4008045 0.0207352 0.0450617
2.4014943 0.021437004 0.045253702
2.4021955 0.022154223 0.045345601
2.4028986 0.022860266 0.045369599
2.4036052 0.023565322 0.045390099
2.4043145 0.024271868 0.0453947
2.4050057 0.024983075 0.045321301
2.4057412 0.025670946 0.0451307
2.4064529 0.026371192 0.044996999
2.4071839 0.027053125 0.0446321
2.4079645 0.027746018 0.044092901
2.4086721 0.028417278 0.043419998
2.4093711 0.029091716 0.0431729
2.4101346 0.029777749 0.042629801
2.4108319 0.030478921 0.042609401
2.4115121 0.031231629 0.0431896
2.4121976 0.031956203 0.0435801
2.4128926 0.03267986 0.0437961
2.4135849 0.033383146 0.043935101
2.4142871 0.034075119 0.043785602
2.4150035 0.034752741 0.043377198
2.4157453 0.035432342 0.042755101
2.4165082 0.036118656 0.042182799
2.4172306 0.036818482 0.041914899
2.4179285 0.037538879 0.042190202
2.4185739 0.038212404 0.042796001
2.4192147 0.039127186 0.044594001
2.400979 0.083262533 0.00267925
2.401588 0.084420286 0.00314288
2.3280599 0.079545267 -0.060698502
2.3683286 0.0090234615 0.0034274701
2.3436124 0.024935909 0.0122521
2.4148996 0.048562959 -0.0266147
2.4055762 0.090620451 0.00581897
2.4062753 0.091626316 0.00627096
2.4249849 0.046028126 0.0563403
2.4256792 0.046760052 0.056795001
2.4263725 0.047481652 0.0571362
2.427073 0.048193991 0.057252198
2.4277737 0.048892263 0.0570811
2.4284885 0.049588479 0.056881201
2.4291911 0.050306972 0.057070199
2.4298899 0.051018458 0.057197999
2.4305916 0.051726416 0.057236001
2.4313023 0.05243621 0.057292301
2.432009 0.053145722 0.057295199
2.4327092 0.053859152 0.057429299
2.4334126 0.054568306 0.0574538
2.4341421 0.055271912 0.057217602
2.434854 0.055958413 0.056955799
2.4355533 0.056669418 0.057091098
2.4362485 0.057384986 0.0572774
2.4369478 0.05810212 0.0572933
2.4376578 0.058805961 0.057281598
2.4383664 0.059515484 0.057326399
2.4390759 0.060221061 0.0573342
2.4397781 0.060934022 0.057379302
2.440486 0.061642144 0.057381701
2.4411983 0.062342975 0.057327401
2.4419131 0.063051343 0.057241298
2.4426298 0.063753635 0.057126001
2.4433496 0.06444703 0.056865498
2.4440663 0.065134801 0.056592699
2.4447985 0.065837026 0.0562726
2.3928535 0.070949756 0.0075200498
2.4304736 0.060390893 -0.035454798
2.4387162 0.10475186 0.0253192
2.3928454 0.071286611 0.010523
2.3627927 0.029024895 0.052046798
2.471118 0.093000025 0.019171201
2.3839777 0.048855141 0.031973898
2.3860831 0.050983466 0.032226399
2.3874691 0.052422918 0.032509301
2.4521136 0.072614215 0.050785601
2.4528348 0.073289283 0.050507501
2.4535592 0.073982038 0.050255999
2.4542749 0.074679032 0.050011799
2.4205046 0.085854366 0.039168
2.3784339 0.060061365 0.00092967099
2.3367801 0.056543227 0.0080824699
2.4523773 0.10368109 0.0041654701
2.4054015 0.072652109 0.0365807
2.4659526 0.097746611 0.0131619
2.4379175 0.10143439 -0.0065997299
2.3298445 0.066347621 -0.0217479
2.4117029 0.084768578 0.035937302
2.3912673 0.054305095 0.033323899
2.4025605 0.075523108 0.0324651
2.3606279 0.036865935 0.053211398
2.4639494 0.093220994 -0.00978781
2.4611635 0.098708004 0.024161501
2.4636908 0.099405214 0.0091608698
2.3552158 0.039431386 0.052409299
2.471571 0.093513101 0.0091715902
2.391504 0.068996221 0.0066641299
2.3552723 0.029335171 0.050413299
2.462831 0.096331559 0.027165599
2.3450899 0.024628669 0.037249099
2.4303358 0.091584466 0.037778299
2.349843 0.041972522 0.050767899
2.3541372 0.11129209 -0.0096114399
2.3574109 0.031533144 0.051631901
2.3361526 0.06397818 -0.0091913799
2.3352809 0.063523643 -0.0095194699
2.4138603 0.098675229 0.020080799
2.349637 0.069428548 0.0145778
2.4429822 0.10391952 0.026238499
2.4191046 0.10189868 0.0180171
2.3333397 0.06581226 -0.0152637
2.4126494 0.098610103 0.0140347
2.3934824 0.072517693 0.0109996
2.3947942 0.071989477 0.0010065
2.4225194 0.10337908 0.016414899
2.3993125 0.077398777 0.025456199
2.339056 0.061951742 -0.0031485001
2.3319461 0.066599481 -0.018295599
2.3328686 0.067091987 -0.0179174
2.3502324 0.099225745 -0.0051567601
2.3496349 0.097907215 -0.00565624
2.3491111 0.096274495 -0.0062167901
2.3488767 0.026139822 0.00127971
2.3914063 0.013170004 0.043694701
2.3920829 0.013885386 0.044111099
2.3927732 0.014626574 0.044449799
2.3934662 0.015324984 0.044617102
2.3941634 0.0160475 0.044706699
2.3948679 0.016749803 0.0447184
2.395575 0.01745316 0.0447299
2.396297 0.018148389 0.0446513
2.397007 0.018851679 0.044500899
2.3977203 0.01955447 0.044349801
2.3984263 0.020277277 0.044418499
2.3991256 0.020980991 0.044612098
2.3998189 0.021716103 0.0449632
2.4005079 0.02243077 0.045223899
2.4012012 0.023154352 0.0454573
2.401902 0.023854531 0.045538999
2.4026022 0.024569556 0.045613099
2.4033182 0.025270157 0.045571599
2.404012 0.025981225 0.045599502
2.4047389 0.026678573 0.045411799
2.4054585 0.027371466 0.045143001
2.4062099 0.028062522 0.044679798
2.4069395 0.028739363 0.044155501
2.4076595 0.029417977 0.043754902
2.4083889 0.030090576 0.043219998
2.4091322 0.030777177 0.042690299
2.4098411 0.031472478 0.042598099
2.4105175 0.032205887 0.043108098
2.4112217 0.032957397 0.043535199
2.4119041 0.033667333 0.043790702
2.4125965 0.034374017 0.0439188
2.413305 0.035059627 0.043628398
2.4140828 0.035764262 0.043139402
2.4147761 0.036434453 0.042674899
2.4155123 0.037115399 0.042340599
2.4162199 0.037821941 0.042346898
2.4169118 0.038534421 0.042621601
2.4175868 0.039315842 0.043318901
2.4182591 0.040128238 0.0444819
2.404211 0.088667005 0.0049464698
2.4035232 0.087648042 0.00449841
2.4028847 0.086599551 0.0040566898
2.4022384 0.085462466 0.00358698
2.4091194 0.095104054 0.0079308003
2.4083836 0.09429466 0.0075266901
2.4048896 0.08968623 0.0053943102
2.4098587 0.095907144 0.0083375797
2.4240379 0.047002234 0.055949301
2.4247255 0.047718816 0.056313399
2.4254048 0.048435964 0.056580499
2.4260979 0.04914774 0.0567302
2.4268246 0.049861778 0.0567616
2.4275136 0.050572842 0.056836698
2.4282119 0.051281858 0.056964301
2.4289083 0.051993351 0.0571061
2.4296293 0.052701019 0.0570339
2.4303432 0.053397313 0.0568248
2.4310386 0.054110713 0.0569814
2.4317329 0.054830182 0.057230901
2.4324381 0.055537499 0.057260901
2.4331589 0.0562496 0.0571349
2.4338655 0.056946807 0.057087298
2.4345686 0.057652295 0.0571343
2.4352756 0.058362938 0.057126701
2.4359815 0.059072204 0.0570453
2.4366953 0.059771795 0.056979101
2.4374037 0.060482953 0.056902502
2.4381063 0.061193213 0.056913599
2.4388161 0.061894909 0.0569751
2.4395125 0.062616542 0.056931298
2.4402287 0.063313641 0.056986399
2.4409411 0.06401705 0.056972001
2.4416556 0.064714879 0.056840099
2.442374 0.065418415 0.056619901
2.4430945 0.06612502 0.056405801
2.4438179 0.066808172 0.056131601
2.4445281 0.067484923 0.0558386
2.3519034 0.1064038 -0.0072625801
2.4525375 0.10380469 0.0051739099
2.4376986 0.10485432 0.0250757
2.3634884 0.029729173 0.052426498
2.3493743 0.019375362 0.0412843
2.3832517 0.048192866 0.032032799
2.384661 0.049585082 0.031884301
2.3853621 0.050289154 0.0320048
2.4511437 0.073578484 0.050312199
2.45188 0.074273437 0.049848799
2.452595 0.074926585 0.049729802
2.4533126 0.0756699 0.049481198
2.4540286 0.076358408 0.049224399
2.3985336 0.081175074 0.0116153
2.3650007 0.015159097 0.00238203
2.3933082 0.0072378702 0.040322699
2.4033723 0.070475772 0.035496
2.4484508 0.092885897 0.038919002
2.4143939 0.046107955 -0.026547801
2.404839 0.081259251 -0.0082109896
2.4314921 0.09468817 0.036558401
2.3898311 0.052904174 0.0337051
2.4364233 0.10439208 0.0260462
2.3613377 0.037557125 0.0531293
2.415303 0.043166962 -0.028573699
2.4613991 0.09895125 0.023149701
2.4637032 0.099429116 0.0081641898
2.3874526 0.066224724 0.00489661
2.4481671 0.10321722 -0.00082972698
2.3580587 0.032200579 0.052122299
2.3534644 0.10203211 -0.00340966
2.463176 0.096733406 0.0261744
2.4522097 0.1034954 0.0031658299
2.455771 0.098924592 -0.0068071699
2.3395224 0.059407145 0.0269686
2.3548551 0.1119944 -0.0105699
2.4106281 0.096368074 0.0186496
2.3724949 0.014944274 0.033426799
2.3453572 0.063390851 -0.0069233901
2.4130259 0.098195866 0.019736201
2.373755 0.0047917776 0.00145452
2.4418771 0.1041709 0.0260072
2.4200108 0.10224792 0.0183169
2.431669 0.10269566 0.028639499
2.4134676 0.099169388 0.0143899
2.3312094 0.048326649 0.0149377
2.3680332 0.0052021816 0.0144152
2.4146583 0.099891983 0.0134608
2.3400037 0.062053636 -0.0028766501
2.3305123 0.064660743 -0.019129699
2.3311801 0.06580653 -0.0186805
2.3515694 0.10133243 -0.0042616301
2.350878 0.10041446 -0.0047151502
2.3437521 0.02325695 0.023261501
2.344059 0.062586308 0.030358201
2.3601041 0.016347889 0.0113565
2.3341374 0.056069817 -0.0189052
2.3903871 0.014127214 0.0437834
2.3910894 0.014900792 0.044329699
2.3917699 0.015608676 0.044621501
2.3924637 0.016331688 0.044869401
2.3931589 0.017062977 0.0450541
2.3938599 0.017755594 0.045145601
2.394557 0.018473521 0.045231901
2.3952787 0.019167613 0.045161001
2.3959622 0.019888438 0.045019999
2.3967166 0.020555664 0.044628099
2.3974302 0.021261923 0.044450499
2.3981333 0.021975182 0.0445907
2.3988297 0.022696361 0.044840898
2.3995228 0.023414217 0.0451014
2.4002173 0.024125986 0.045276001
2.4009206 0.024838328 0.045376498
2.4016204 0.025553707 0.045510199
2.4023254 0.026261594 0.045530099
2.4030318 0.026964173 0.045502
2.4037447 0.027660459 0.0453743
2.4044607 0.028345361 0.045097701
2.4052043 0.029046953 0.0446532
2.4059453 0.029733624 0.044159599
2.4066811 0.030415494 0.043659899
2.4074023 0.031034349 0.043004099
2.4081485 0.031751782 0.042479798
2.4088531 0.03245917 0.042497002
2.4095428 0.033196189 0.042942401
2.4102299 0.033923235 0.043327101
2.4109137 0.034650635 0.043710701
2.4116189 0.035341054 0.043678202
2.4123497 0.03603112 0.0430956
2.41308 0.036756821 0.042968899
2.4137564 0.037448868 0.042860501
2.4144681 0.03816206 0.043047
2.4151592 0.038893625 0.0434306
2.4158554 0.03961898 0.043674301
2.4165704 0.040339164 0.043818198
2.4173009 0.04114357 0.044481698
2.412123 0.098085105 0.0094845202
2.4129291 0.09872859 0.0098653296
2.4137244 0.099321395 0.0102208
2.4145479 0.099873595 0.010577
2.4162233 0.10082749 0.0112565
2.4153917 0.10033251 0.0109156
2.4106121 0.096688822 0.00874185
2.4113677 0.097387597 0.0091129998
2.4188378 0.10199683 0.0122405
2.4237692 0.048671857 0.0557235
2.4244335 0.049389567 0.0560195
2.4251618 0.050111879 0.056295998
2.425842 0.050827328 0.056467
2.4265456 0.05154575 0.056678001
2.4272392 0.052256536 0.0568363
2.4279394 0.052969512 0.056965999
2.428647 0.053662263 0.056793202
2.4293783 0.054361589 0.056460701
2.4300611 0.055080578 0.056786802
2.4307578 0.05580594 0.057110399
2.4314656 0.056515183 0.057199001
2.4321718 0.057223298 0.0571361
2.4328866 0.057926688 0.057089999
2.4335954 0.058635861 0.057038698
2.4343054 0.059338931 0.056907799
2.4350162 0.060049068 0.056802701
2.4357274 0.060742654 0.0567366
2.4364374 0.061450735 0.056643099
2.4371517 0.062145479 0.0565827
2.4378564 0.062859774 0.056512199
2.4385588 0.063574895 0.056436699
2.4392715 0.064273745 0.056402698
2.4399865 0.064968497 0.056364302
2.4407001 0.06567008 0.056244101
2.4414155 0.066364042 0.056101501
2.4421299 0.06706845 0.055878799
2.4428484 0.067776978 0.055664599
2.4435694 0.068457916 0.055394001
2.4442933 0.069154091 0.055046
2.4257731 0.089082301 0.0381888
2.3527417 0.084323406 0.0054230099
2.4110806 0.097273014 0.0132863
2.3537812 0.083274268 0.0059758299
2.354476 0.083959028 0.0056622098
2.3827951 0.045801502 0.0337703
2.3650467 0.0097971782 0.018368101
2.3361001 0.061822839 -0.0389315
2.4509187 0.075230293 0.0492476
2.4516308 0.075914629 0.049192701
2.4523492 0.076634467 0.049096499
2.453052 0.077314489 0.0490265
2.4537573 0.078006253 0.048776198
2.3446262 0.065424711 0.0166435
2.3604946 0.032727301 0.053141098
2.4019227 0.069055907 0.034795798
2.4492126 0.1044507 0.017170301
2.4585395 0.099944592 -0.00181466
2.3599944 0.016197052 0.0143395
2.3770795 0.040227309 0.0369711
2.4534476 0.10268385 0.00119339
2.3524103 0.10726725 -0.0069290898
2.3950582 0.074745283 0.0076122498
2.3459032 0.023307726 0.0092726201
2.4617498 0.099374026 0.0201647
2.4588864 0.096067101 -0.0078400001
2.4599195 0.097296759 0.028173501
2.3733449 0.11327173 -0.020742601
2.4095912 0.082654186 0.0356916
2.401407 0.07241933 0.032741301
2.3475475 0.064975828 -0.0235803
2.4525518 0.10388812 0.0061636302
2.4566209 0.099901885 -0.00381805
2.3464143 0.063152485 -0.0067012301
2.3557358 0.021344449 0.00125292
2.3427272 0.063088559 0.0112334
2.4083326 0.094117753 0.017484101
2.4114051 0.097045913 0.0190237
2.3808634 0.061418802 -0.0010356
2.4408219 0.10437574 0.0257836
2.420902 0.10258472 0.0186355
2.4029741 0.085780993 0.024077101
2.4143045 0.099650025 0.0147331
2.3962407 0.072884537 0.0220793
2.3680358 0.0052133575 0.0154111
2.4138212 0.099411421 0.0131197
2.3409224 0.062181551 -0.00263594
2.4019492 0.055918783 -0.019272299
2.3381689 0.059083227 0.0148854
2.3529415 0.06854248 0.0283051
2.3664646 0.016494397 -0.00164696
2.3459659 0.023544326 0.032258399
2.3866804 0.012184087 0.0416191
2.3873792 0.01291262 0.0418556
2.3918889 0.066620559 -0.00265044
2.3911762 0.065982819 -0.00301843
2.3894064 0.015144534 0.043735001
2.3900781 0.015873984 0.0442634
2.3907745 0.0166081 0.044618499
2.3914607 0.017322205 0.044898801
2.3921607 0.018060077 0.045214102
2.3928509 0.01876732 0.045380399
2.3935506 0.019487582 0.045454599
2.3942609 0.020185139 0.045325302
2.3949864 0.020856537 0.045034401
2.3957353 0.021556359 0.044676099
2.3964276 0.022256471 0.0446686
2.3971272 0.022970501 0.044819798
2.3978257 0.02368829 0.0448936
2.398535 0.024394762 0.044882301
2.3992364 0.025108092 0.044996802
2.3999393 0.025820717 0.045112301
2.4006398 0.026532553 0.045237999
2.401345 0.027240012 0.045249902
2.4020522 0.027950659 0.045163602
2.4027681 0.028645039 0.0450201
2.4034915 0.029338147 0.044759899
2.4042139 0.030014068 0.0443573
2.4049447 0.030686174 0.0438293
2.4057121 0.03139681 0.043183401
2.4064453 0.032078464 0.0427012
2.4071484 0.03274668 0.042459302
2.407846 0.033462696 0.0425932
2.4085519 0.034189321 0.042805798
2.4092338 0.034914672 0.043211799
2.4099128 0.035629414 0.043550398
2.4106362 0.036334328 0.0433743
2.41135 0.037040442 0.043173201
2.4120357 0.037772086 0.043223798
2.4127452 0.038470782 0.043452099
2.413419 0.039220247 0.043907799
2.4141357 0.039908472 0.0439847
2.4148428 0.040635377 0.0439042
2.4155443 0.041313984 0.043839701
2.4162474 0.042041175 0.044252001
2.4168997 0.042811785 0.045391802
2.423275 0.10373165 0.0138576
2.4223785 0.10340779 0.0135344
2.4214942 0.10305656 0.0132094
2.4206083 0.10270818 0.0128859
2.419703 0.10242943 0.0125793
2.4179626 0.10163352 0.0119166
2.4170868 0.10125712 0.0115965
2.4241831 0.10400607 0.0141603
2.3305845 0.067267418 -0.0213426
2.423497 0.050362483 0.055592101
2.4241731 0.051079419 0.0558751
2.4248745 0.051802427 0.056205001
2.4255555 0.05252149 0.056485102
2.4262636 0.0532392 0.056687199
2.4269607 0.053951539 0.0568243
2.4276669 0.054641042 0.0566766
2.4284012 0.055345811 0.056416102
2.4290903 0.056065932 0.05669
2.4297812 0.056785867 0.0569552
2.430486 0.057497278 0.057062399
2.4311903 0.058206134 0.057078298
2.4318981 0.058914673 0.056995001
2.4326136 0.059617385 0.056884199
2.4333274 0.060327608 0.056700502
2.4340422 0.061013542 0.056593802
2.4347517 0.061730266 0.056441899
2.435467 0.062408272 0.056411199
2.4361773 0.063123293 0.0562541
2.4368861 0.063831665 0.056154601
2.4376001 0.064532213 0.056026999
2.4383171 0.065219693 0.055864599
2.4390275 0.065935865 0.055675101
2.4397404 0.066637821 0.055548601
2.4404564 0.067330994 0.055406298
2.44117 0.068041861 0.055192899
2.4418926 0.068713628 0.055015001
2.4426069 0.069423221 0.0548038
2.443327 0.070111804 0.0545501
2.4440427 0.070803516 0.054299001
2.4447598 0.071489766 0.054035701
2.4375389 0.064144641 -0.034177899
2.3523853 0.081849948 0.0064502801
2.4501436 0.10337371 0.0231802
2.3750763 0.110711 -0.017704999
2.4122291 0.097604215 0.019376799
2.3462119 0.044222955 0.048069701
2.4499531 0.076209486 0.048672602
2.4506645 0.076888032 0.0485994
2.45139 0.077603132 0.048664499
2.4520836 0.078304298 0.048668101
2.4527864 0.079007164 0.0484736
2.3402991 0.060110372 0.027334001
2.3468914 0.044933811 0.048095699
2.4026468 0.069771431 0.035272799
2.3478861 0.053808354 0.042805199
2.4479139 0.10294279 -0.00183337
2.3289833 0.060771517 -0.0249456
2.4060462 0.079117611 0.0346088
2.3856311 0.048609279 0.033257
2.3891778 0.067006707 0.0055384501
2.3620443 0.038256735 0.053002998
2.4100323 0.085024402 0.034299798
2.4618297 0.099463195 0.0191637
2.4622128 0.099858046 0.0041757999
2.3671443 0.0062396526 0.0174009
2.4622424 0.097794279 0.0251568
2.4457562 0.10421035 0.0241962
2.3392239 0.05325928 0.035950501
2.4348061 0.10198332 -0.0053823902
2.3527448 0.016963281 0.036310401
2.3358617 0.034712933 0.019177601
2.4531467 0.10244104 0.023165001
2.387785 0.016314019 -0.0169858
2.3330128 0.052228674 0.0163089
2.4275739 0.1039816 0.023599001
2.3816295 0.062131278 -0.00065454101
2.4397709 0.10457622 0.0255569
2.4227395 0.10308429 0.019245701
2.3479798 0.064539678 0.033330001
2.4267073 0.10451937 0.019231301
2.404958 0.08616966 0.027602799
2.3995728 0.081758864 0.0048074299
2.4114268 0.097595267 0.0120332
2.4122069 0.098201491 0.0123881
2.3419454 0.062274124 -0.00229118
2.3366835 0.057456389 0.0141114
2.4246545 0.067207195 0.0460186
2.3668582 0.016825821 -0.00262262
2.3635612 0.013897758 0.0093720099
2.384975 0.012453422 0.041391101
2.3856766 0.013200622 0.041730199
2.3863776 0.013915434 0.041854098
2.3870757 0.014643971 0.0422251
2.3877494 0.015388835 0.042841502
2.3409047 0.035689797 0.0052043898
2.3890862 0.016856644 0.044027299
2.3897803 0.017587442 0.0443899
2.3904748 0.018319014 0.044749301
2.3911715 0.019046836 0.045100201
2.3918595 0.019758474 0.0452713
2.3925591 0.020470668 0.045400899
2.3932724 0.021171417 0.045273099
2.3939793 0.021878451 0.045185301
2.3946865 0.022586256 0.0452323
2.3953946 0.023293793 0.045276798
2.3961017 0.023998566 0.045265399
2.3968146 0.024701856 0.0451691
2.3975244 0.025391567 0.044979699
2.3982506 0.026092872 0.044755898
2.3989637 0.02679079 0.044703402
2.3996723 0.027497403 0.044702101
2.4003737 0.028212715 0.044660799
2.4010823 0.028917551 0.0446494
2.4017968 0.029620703 0.044530701
2.4025164 0.030297264 0.044219401
2.4032629 0.031012926 0.04369
2.4040077 0.031708013 0.043233301
2.404732 0.032391213 0.0428496
2.4054379 0.033069551 0.042679999
2.4061403 0.033766259 0.042648599
2.406852 0.034463674 0.042569201
2.4075472 0.035168242 0.0426463
2.4082363 0.035906099 0.043111801
2.408926 0.036638379 0.043464299
2.4096303 0.037362464 0.043543398
2.4103312 0.038054012 0.043616202
2.4110215 0.038792513 0.043788001
2.4117091 0.039511427 0.0442186
2.412395 0.040241584 0.044406701
2.4131105 0.040936816 0.044277601
2.4138296 0.041629635 0.044195801
2.4145522 0.04233972 0.044039201
2.415256 0.043035299 0.044110902
2.4159732 0.043798968 0.0448476
2.4250948 0.10427167 0.0144664
2.4260094 0.10452982 0.0147739
2.4269283 0.1047812 0.0150782
2.427855 0.10499531 0.0153837
2.4288027 0.10516085 0.0156714
2.4297268 0.10535941 0.0159771
2.4306829 0.10549948 0.0162626
2.432622 0.10566367 0.016820099
2.4316647 0.10556489 0.0165355
2.4225354 0.051323436 0.0550019
2.4232221 0.052051682 0.055474099
2.4239137 0.052773148 0.0558291
2.4245965 0.05349008 0.0560918
2.4253025 0.054214157 0.0563071
2.4259846 0.054925647 0.056481302
2.4267142 0.055628087 0.056526501
2.427417 0.056330878 0.056410801
2.4281058 0.057045486 0.0564817
2.4288051 0.05776301 0.056631502
2.4295084 0.058471523 0.056727
2.4302123 0.059187233 0.056753598
2.4309175 0.059895732 0.056761801
2.4316356 0.060591947 0.056712698
2.4323473 0.061300844 0.056522898
2.4330616 0.061996549 0.056381799
2.4337766 0.062698603 0.056251001
2.4344866 0.063397743 0.0561263
2.4352009 0.064100042 0.056011099
2.4359145 0.064799428 0.055872198
2.4366281 0.065504789 0.055668101
2.437345 0.06620644 0.055440798
2.4380584 0.066887423 0.055256002
2.4387774 0.067598782 0.0550512
2.4394929 0.068296179 0.054811001
2.440217 0.06897597 0.054535799
2.4409406 0.069655173 0.0542708
2.4416542 0.070362911 0.054049499
2.4423683 0.071072824 0.0538342
2.4430845 0.071762003 0.0536897
2.4437976 0.072470106 0.0534706
2.4445202 0.0731567 0.053104501
2.4067161 0.092676736 0.0138246
2.3670251 0.033282958 0.052786399
2.3663251 0.032568771 0.052947398
2.3656094 0.031861529 0.052930798
2.3649001 0.031153783 0.0527975
2.4489782 0.077172436 0.048173498
2.4496891 0.077877834 0.048152901
2.4504013 0.078574695 0.0482147
2.4511034 0.07929071 0.048235599
2.4518125 0.079992518 0.048127901
2.3891521 0.052161351 0.033766199
2.4135442 0.083232976 -0.0131916
2.3998411 0.066875264 0.033157501
2.3471782 0.053106125 0.0431794
2.3475726 0.067516677 0.022272499
2.3371205 0.068723202 -0.057985298
2.4509928 0.099932149 -0.00780471
2.4579971 0.10151564 0.016164999
2.4032543 0.07624796 0.033096999
2.3627594 0.03896597 0.052657399
2.4093099 0.084337205 0.034321699
2.4619646 0.099584185 0.018153301
2.4624608 0.10014547 0.0081648603
2.3681178 0.11878876 -0.027731
2.4053271 0.078412838 0.034249499
2.3551135 0.076304883 0.0095775202
2.3481712 0.052079763 0.044275399
2.3758025 0.10927634 -0.0177492
2.3535917 0.017739542 0.0303184
2.3770943 0.055217333 -0.0070977202
2.4310565 0.092264213 0.0376096
2.4493694 0.10455677 0.0151646
2.3918438 0.062663876 0.027294001
2.4266512 0.10374324 0.023294101
2.4011471 0.085096546 0.0104159
2.4366806 0.10491831 0.0248216
2.4218354 0.10277563 0.018931
2.3508298 0.065074608 0.034236401
2.4285736 0.10492191 0.0198268
2.3394046 0.060538106 0.019917199
2.3989718 0.080597796 0.0043476499
2.4001975 0.082909547 0.0052713701
2.4106483 0.096915901 0.0116581
2.3458626 0.062505901 -0.00116291
2.342942 0.062279489 -0.00202392
2.3878632 0.059801862 0.028508199
2.3480299 0.068258218 0.01387
2.3592203 0.027863752 -0.00499812
2.3509474 0.016954936 0.0163015
2.3839715 0.013458431 0.041390099
2.3846645 0.014191277 0.0417662
2.3853626 0.014890816 0.041934799
2.3860734 0.01563802 0.042102098
2.3867488 0.016349867 0.042401601
2.3874662 0.01695225 0.042994499
2.3881221 0.017841365 0.0436166
2.3888104 0.018570106 0.043990999
2.3895059 0.01929808 0.044355199
2.3901744 0.020019535 0.0447779
2.3908703 0.020741705 0.045032199
2.3915799 0.021461677 0.045217
2.3922753 0.022169068 0.0452694
2.3929768 0.022883456 0.045384701
2.3936822 0.023590207 0.045398999
2.3943882 0.024296682 0.045398999
2.3950973 0.025001951 0.045385599
2.395808 0.025698949 0.045251202
2.3965349 0.02638435 0.0448821
2.3972669 0.027069036 0.044475701
2.3979867 0.027770564 0.044158101
2.3986948 0.028476391 0.0441515
2.3993948 0.029188592 0.044236802
2.4001088 0.029899091 0.044206999
2.400836 0.030611921 0.044029102
2.4015524 0.031301711 0.043819401
2.4022801 0.031988941 0.043426301
2.4030035 0.03268778 0.043186501
2.4037106 0.033376999 0.043029498
2.4044015 0.034108281 0.042888802
2.4051385 0.034765609 0.0426604
2.4058542 0.035459425 0.042479701
2.4065576 0.03617106 0.042596199
2.4072421 0.036897611 0.0429883
2.4079397 0.037647143 0.0434324
2.4086218 0.038358774 0.0437278
2.4093165 0.039099187 0.044038199
2.4099996 0.039805796 0.044350799
2.4106948 0.04053136 0.044565801
2.4113972 0.041241925 0.044516999
2.4121141 0.041928321 0.0443017
2.4128313 0.042626232 0.044224702
2.413548 0.043323584 0.044116899
2.414257 0.044036418 0.044093899
2.4149523 0.044756394 0.044378798
2.4155941 0.045471556 0.044932902
2.4415989 0.10560512 0.0192002
2.4405806 0.1056998 0.018948499
2.4395618 0.10578571 0.0186978
2.438576 0.10580657 0.0184294
2.4375548 0.1058507 0.018175101
2.4355812 0.10579732 0.0176317
2.4336095 0.10571232 0.017092999
2.4345939 0.10576026 0.017364001
2.4365685 0.10583013 0.0179058
2.4222777 0.053005997 0.0547456
2.4229696 0.053761326 0.055263199
2.4236295 0.05445797 0.055506099
2.4243445 0.055156305 0.055608898
2.4250314 0.055882718 0.055859599
2.4257278 0.056601495 0.056095999
2.4264233 0.05731263 0.0561224
2.4271333 0.05801896 0.056118999
2.4278331 0.05873064 0.0561384
2.4285495 0.059437934 0.056224901
2.4292407 0.060153563 0.0562701
2.4299555 0.060853638 0.056341901
2.4306598 0.06156747 0.0562617
2.4313715 0.06227142 0.056144401
2.4320865 0.062972412 0.0560196
2.4327936 0.063679792 0.055921402
2.4335134 0.064363934 0.055852499
2.434226 0.065077282 0.055659398
2.4349396 0.065775499 0.055525102
2.4356527 0.066481583 0.0553138
2.4363689 0.067175999 0.055167999
2.4370849 0.067886114 0.0549546
2.4378045 0.068563573 0.054676101
2.4385302 0.069245957 0.054294001
2.4392526 0.069937982 0.053833999
2.4399872 0.070606105 0.053428099
2.4407046 0.071305789 0.053198401
2.4414227 0.071999662 0.053061999
2.4421377 0.072701462 0.0529394
2.4428432 0.073415503 0.052732602
2.443562 0.07411243 0.052383199
2.4074559 0.093482889 0.0142252
2.4440479 0.10373673 0.0264745
2.4006722 0.073781855 0.030815801
2.339057 0.034103893 0.032197099
2.3401833 0.061237495 0.0202886
2.4479995 0.078141235 0.047770701
2.4487133 0.078857817 0.047782701
2.4494233 0.079564929 0.0479175
2.4501216 0.080261782 0.047943398
2.4508257 0.080961175 0.047839701
2.4236526 0.10334542 0.019552501
2.350549 0.042664211 0.050632302
2.4005268 0.06760478 0.03379
2.350143 0.055878542 0.041009299
2.3264582 0.069995582 -0.0490431
2.4189017 0.08039207 0.041520301
2.4262311 0.097319745 0.033053301
2.3474624 0.041549094 0.049791198
2.3627105 0.067439184 0.0093833199
2.3850749 0.063593782 -0.0023208901
2.4072134 0.08220537 0.033931699
2.4608774 0.10047477 0.0041764099
2.4624605 0.10013954 0.0071686702
2.3536868 0.070627242 0.0145047
2.4025066 0.087146305 0.0112981
2.3471651 0.043251526 0.048966799
2.3460493 0.050001498 0.044934101
2.4272664 0.10451958 0.020807
2.3590086 0.096969865 -0.0065463199
2.3832583 0.063364118 0.000111554
2.352921 0.070274398 0.017104801
2.3484039 0.076433145 0.00587596
2.3416975 0.062750414 0.021039199
2.4257431 0.10347723 0.022985
2.401818 0.086126827 0.0108566
2.3712311 0.0026808605 0.0214162
2.4476492 0.10330032 0.025881801
2.3316135 0.04776768 0.0238067
2.4295259 0.10504948 0.020114999
2.4167445 0.095824987 0.0301427
2.4490564 0.10330462 0.024829799
2.4008348 0.084050536 0.0057383799
2.4461594 0.1043773 0.022915199
2.3730001 0.0041336082 0.00342064
2.3458071 0.023415349 0.036260799
2.3398585 0.060878925 0.021569001
