# .PCD v0.7 - Point Cloud Data file format
VERSION 0.7
FIELDS x y z rgba
SIZE 4 4 4 4
TYPE F F F U
COUNT 1 1 1 1
WIDTH 1057
HEIGHT 1
VIEWPOINT 0 0 0 1 0 0 0
POINTS 1057
DATA ascii
0.099601917 0.20465411 0.80121213 4292862016
0.099098228 0.20604107 0.79970056 4292796723
0.098594539 0.20742801 0.79818898 4292795189
0.09809085 0.20881495 0.79667741 4292993847
0.084691301 0.11266746 0.83462369 4287202927
0.084213503 0.11398312 0.83318985 4287397226
0.083735704 0.11529878 0.83175594 4287530858
0.083257899 0.11661443 0.83032209 4288122729
0.080431655 0.11529035 0.82692397 4288645991
0.079955675 0.11660101 0.82549548 4288253285
0.079479687 0.11791165 0.82406706 4287858021
0.11069372 0.20270701 0.82242793 4286340163
0.10443973 0.19716175 0.81636804 4286209091
0.10393423 0.19855368 0.81485099 4285750339
0.10342872 0.19994563 0.81333399 4285290308
0.10063115 0.19854268 0.81002164 4285812037
0.10012746 0.19992962 0.80851007 4286284358
0.09962377 0.20131657 0.80699849 4288787272
0.09912008 0.20270351 0.80548692 4291215688
0.098616391 0.20409045 0.80397534 4292006984
0.09811271 0.20547739 0.80246377 4292794439
0.097609021 0.20686434 0.8009522 4292599366
0.097105332 0.20825128 0.79944062 4292335426
0.096601643 0.20963822 0.79792905 4292007487
0.089012235 0.097660556 0.85301757 4288642933
0.09194012 0.11006136 0.85041314 4290290297
0.08824572 0.11341314 0.84312326 4289898641
0.087765202 0.1147363 0.84168118 4290156935
0.083278641 0.11344843 0.83581102 4289629300
0.082800843 0.11476409 0.83437717 4289237867
0.082323045 0.11607975 0.83294326 4288775790
0.081845239 0.1173954 0.83150941 4288450672
0.07902436 0.11606836 0.82810676 4288121967
0.078548379 0.11737901 0.82667828 4288055918
0.078072391 0.11868966 0.82524985 4287991662
0.077596411 0.12000032 0.82382143 4288056429
0.077120431 0.12131096 0.822393 4288120681
0.076644443 0.12262163 0.82096457 4287923045
0.10918572 0.20354068 0.82369536 4286471491
0.10867567 0.20494513 0.82216471 4286405956
0.10243964 0.19937992 0.81610715 4286144069
0.10193413 0.20077187 0.81459016 4285882183
0.099141933 0.19936597 0.81127328 4286142793
0.098638244 0.20075291 0.8097617 4286404424
0.098134555 0.20213985 0.80825013 4287725126
0.097630866 0.20352679 0.80673856 4289111877
0.099406607 0.20773159 0.80700505 4289308483
0.096623495 0.20630068 0.80371541 4289580622
0.098395601 0.21051548 0.80397099 4289444440
0.097890094 0.21190742 0.80245394 4289318223
0.086184762 0.093254581 0.85500121 4285235558
0.087599561 0.098441526 0.85420489 4290163088
0.087121755 0.099757187 0.85277104 4291748782
0.086643957 0.10107284 0.85133713 4293317304
0.086166158 0.1023885 0.84990329 4293323459
0.090997256 0.1095221 0.85305673 4293318590
0.090515368 0.11084901 0.8516106 4293059001
0.086344481 0.11552173 0.8428753 4293120697
0.082343757 0.11291374 0.83843225 4292596913
0.081865959 0.1142294 0.83699834 4292067241
0.081388161 0.11554506 0.83556449 4291083168
0.080910355 0.11686072 0.83413059 4290031000
0.080432564 0.11817637 0.83269674 4288782479
0.077617064 0.11684635 0.82928956 4287534722
0.077141084 0.118157 0.82786107 4287790964
0.078999162 0.12212335 0.82839507 4288056439
0.078521356 0.123439 0.82696122 4288319866
0.072217464 0.11809029 0.82064837 4288515187
0.10767771 0.20437436 0.82496285 4286537541
0.10716765 0.20577881 0.82343221 4286537541
0.10265888 0.2022993 0.81872475 4286537542
0.10215201 0.20369498 0.81720364 4286472007
0.099934049 0.20299008 0.81432927 4286472008
0.099428542 0.20438203 0.81281227 4286469702
0.098923042 0.20577396 0.81129521 4286728004
0.098417535 0.20716591 0.80977821 4286997823
0.10189173 0.2134943 0.81138062 4286665275
0.099110812 0.21206917 0.80807698 4286281531
0.098603942 0.21346486 0.80655587 4286278971
0.10036568 0.2176964 0.80680096 4286282036
0.099856995 0.21909709 0.80527437 4285944365
0.084301479 0.095343217 0.85475558 4289834353
0.086186901 0.099222496 0.85539222 4291020460
0.085709095 0.10053816 0.85395837 4291877094
0.085231297 0.10185381 0.85252446 4292802799
0.084753498 0.10316947 0.85109061 4293062136
0.086041294 0.10642669 0.8511892 4293327352
0.087326363 0.10969135 0.85127968 4293390840
0.086845845 0.11101452 0.8498376 4293457910
0.08636532 0.11233767 0.84839553 4293325300
0.085884795 0.11366083 0.84695351 4293259763
0.085404262 0.11498399 0.84551144 4293390066
0.084923744 0.11630715 0.84406936 4293587948
0.080931097 0.11369471 0.83961958 4293125349
0.080453299 0.11501037 0.83818567 4292731357
0.079975501 0.11632603 0.83675182 4292203989
0.079497695 0.11764169 0.83531791 4291678914
0.079019904 0.11895734 0.83388406 4290887342
0.076209761 0.11762433 0.83047235 4290096276
0.075733781 0.11893499 0.82904387 4289700730
0.077586502 0.12290432 0.82958239 4289368192
0.069546267 0.11556283 0.82177353 4288778630
0.06907437 0.11686222 0.82035732 4288252285
0.068602473 0.11816162 0.81894118 4288188275
0.068130575 0.11946102 0.81752503 4288057201
0.10616969 0.20520805 0.82623029 4286603590
0.10565964 0.2066125 0.82469964 4286603334
0.1051496 0.20801695 0.82316899 4286603334
0.10463955 0.2094214 0.82163835 4286603334
0.1041295 0.21082586 0.8201077 4286668870
0.10361946 0.21223031 0.81857705 4286798916
0.10157927 0.21784811 0.81245446 4286926888
0.086685412 0.094740853 0.862315 4291405637
0.083846144 0.093499921 0.85879523 4291740231
0.083370164 0.094810575 0.8573668 4292064588
0.082894184 0.096121222 0.85593837 4292003408
0.084774211 0.10000347 0.85657948 4291871341
0.084296413 0.10131913 0.85514563 4292067209
0.083818614 0.10263478 0.85371172 4292203407
0.083340816 0.10395044 0.85227787 4292728980
0.084624596 0.10720988 0.85237986 4293256378
0.085905641 0.11047678 0.85247374 4293718495
0.085425124 0.11179994 0.85103166 4294111977
0.083187111 0.1111681 0.84806597 4294046962
0.082707949 0.11248751 0.84662801 4293980400
0.08222878 0.11380692 0.84518999 4293979885
0.081749618 0.11512633 0.84375203 4293979624
0.079518415 0.11447568 0.84080684 4293650403
0.079040617 0.11579134 0.83937293 4293321949
0.076230414 0.11447038 0.83594042 4293322199
0.07808502 0.11842266 0.83650517 4293254093
0.077607214 0.11973831 0.83507133 4292925891
0.074802466 0.11840234 0.83165514 4292594867
0.076651618 0.12236962 0.83220357 4291612579
0.07617382 0.12368529 0.83076966 4290622106
0.075696021 0.12500094 0.82933581 4289305490
0.075218216 0.12631659 0.8279019 4287993736
0.065468863 0.11692543 0.81864744 4288058751
0.064998329 0.11822107 0.81723535 4288124538
0.085272752 0.095521808 0.86350232 4291805496
0.082438849 0.094277926 0.85997802 4292133949
0.081962869 0.09558858 0.85854959 4292460598
0.083839357 0.099468768 0.85920072 4292527663
0.083361551 0.10078442 0.85776681 4292590894
0.082883753 0.10210008 0.85633296 4292723756
0.084166214 0.10535426 0.8564465 4292852526
0.083687052 0.10667367 0.85500854 4292988464
0.08320789 0.10799308 0.85357058 4293119867
0.08448492 0.11126219 0.85366786 4293319622
0.084004402 0.11258535 0.85222578 4293454811
0.081770405 0.11195131 0.84925669 4292403440
0.081291243 0.11327071 0.84781873 4291357932
0.080812082 0.11459012 0.84638071 4292207336
0.08033292 0.11590953 0.84494275 4293127652
0.078105755 0.11525664 0.84199417 4292468960
0.077627957 0.1165723 0.84056026 4291879901
0.074823119 0.11524838 0.83712322 4291942361
0.074347138 0.11655904 0.83569479 4292009176
0.073871151 0.11786969 0.8342663 4291941335
0.07165397 0.1171893 0.8313477 4291878353
0.07291919 0.120491 0.83140945 4291612875
0.072443202 0.12180164 0.82998103 4291349940
0.071967222 0.12311231 0.8285526 4290360221
0.063607134 0.11899017 0.81840461 4288780931
0.0631366 0.12028582 0.81699258 4288584571
0.063924469 0.12490186 0.81562179 4288124788
0.08242669 0.10024974 0.86038804 4293055537
0.083707854 0.10349862 0.86051315 4293251639
0.083228692 0.10481803 0.85907519 4293384509
0.082749531 0.10613744 0.85763723 4293448248
0.082270369 0.10745685 0.85619926 4293252402
0.081791207 0.10877626 0.8547613 4292988759
0.083064184 0.11204761 0.85486192 4292919420
0.082583666 0.11337078 0.85341984 4292790672
0.080353722 0.11273448 0.85044742 4290753701
0.07987456 0.11405389 0.84900945 4288660665
0.079395398 0.1153733 0.84757143 4290428878
0.078916237 0.11669271 0.84613347 4292202955
0.076693088 0.11603761 0.84318149 4291283657
0.07621529 0.11735327 0.84174758 4290365120
0.073415816 0.11602637 0.83830601 4290557624
0.072939835 0.11733703 0.83687758 4290690998
0.072463855 0.11864768 0.8354491 4290952117
0.070250705 0.11796507 0.8325271 4291151286
0.071511887 0.12126899 0.83259225 4291610296
0.069301464 0.12057887 0.82967842 4292003243
0.068826847 0.12188578 0.8282541 4291412126
0.068352222 0.12319268 0.82682973 4290753686
0.067877606 0.12449957 0.82540542 4290096783
0.063944936 0.12177498 0.82104295 4289373834
0.06174542 0.1210549 0.81816179 4288979589
0.06472747 0.12639707 0.81967151 4288518526
0.062529251 0.12567317 0.81679446 4288321400
0.086282909 0.10682579 0.86627483 4293515571
0.084046088 0.10621724 0.86326629 4293778497
0.085319132 0.10947962 0.86338252 4293779278
0.084837243 0.11080652 0.86193639 4293779009
0.084355354 0.11213344 0.8604902 4293778484
0.083873473 0.11346035 0.85904408 4293777715
0.083391584 0.11478727 0.85759795 4293644594
0.082909696 0.11611418 0.85615182 4293576262
0.080682419 0.11547936 0.85317189 4292395865
0.078457855 0.1148371 0.85020012 4291211910
0.077978685 0.1161565 0.84876209 4291281075
0.077499524 0.11747591 0.84732413 4291349939
0.075280413 0.11681858 0.84436882 4290953394
0.074802615 0.11813424 0.84293491 4290491556
0.072008513 0.11680438 0.8394888 4289900438
0.071532533 0.11811503 0.83806038 4289245333
0.071056545 0.11942568 0.83663189 4289572243
0.068847425 0.11874084 0.8337065 4289901980
0.068372808 0.12004774 0.83228219 4289705636
0.067898184 0.12135464 0.83085781 4289577122
0.065694526 0.12065485 0.82794875 4290033823
0.066948943 0.12396844 0.82800913 4290494361
0.064748004 0.12326115 0.82510829 4290229139
0.064274751 0.1245643 0.82368803 4289899665
0.06380149 0.12586746 0.82226777 4289175950
0.061605938 0.12514509 0.81938332 4288516485
0.06113404 0.12644449 0.81796712 4288321147
0.086127117 0.11087793 0.86759186 4294238784
0.085643865 0.1122086 0.86614168 4294175298
0.089239769 0.11807797 0.86832583 4294108476
0.087006524 0.11746851 0.86531258 4294304822
0.084194116 0.1162006 0.86179096 4294500922
0.08196684 0.11557491 0.8587954 4294435647
0.081484951 0.11690182 0.85734928 4294368332
0.081003062 0.11822873 0.85590309 4294106713
0.080521181 0.11955564 0.85445696 4293774465
0.07830064 0.1189111 0.85148185 4292133032
0.077820107 0.12023427 0.85003978 4290492839
0.075603664 0.11957851 0.84707689 4290557606
0.075124502 0.12089792 0.84563893 4290620825
0.072912149 0.12023087 0.84268832 4289241485
0.072434351 0.12154652 0.84125441 4287799949
0.069649249 0.12020369 0.83781469 4288254860
0.069173262 0.12151434 0.83638632 4288651403
0.066969551 0.12082351 0.83346158 4287864202
0.066494927 0.12213041 0.83203721 4287078790
0.064295284 0.1214284 0.82912475 4288651395
0.063822024 0.12273155 0.82770449 4290227855
0.06334877 0.1240347 0.82628429 4290359708
0.061154515 0.12331761 0.82338822 4290424468
0.060682621 0.124617 0.82197207 4289439117
0.060210727 0.12591641 0.82055593 4288453764
0.058021985 0.12518437 0.81767613 4288388219
0.059266936 0.1285152 0.81772357 4288321402
0.086542495 0.11559002 0.86942929 4294305590
0.086057425 0.11692569 0.86797363 4294305591
0.085572362 0.11826135 0.8665179 4294371128
0.082765333 0.11699046 0.86299181 4294502466
0.08054208 0.11636256 0.85999286 4294502475
0.080060191 0.11768947 0.85854673 4294502482
0.079578303 0.11901638 0.85710055 4294370649
0.079096422 0.12034329 0.85565442 4294172539
0.076879904 0.11969653 0.85267591 4291345309
0.076399386 0.12101969 0.85123384 4288520347
0.074186966 0.12036172 0.84826756 4288454041
0.073707804 0.12168112 0.84682959 4288391567
0.073228642 0.12300053 0.84539163 4287864452
0.071021676 0.12232749 0.84244174 4287407493
0.068241954 0.12098168 0.83899748 4287665797
0.067765966 0.12229233 0.83756912 4287928954
0.065566272 0.12159928 0.83464104 4287664751
0.063369304 0.12089878 0.83172107 4287465579
0.062896051 0.12220193 0.83030081 4288125287
0.06242279 0.12350509 0.82888055 4288849798
0.060231194 0.12278953 0.82597703 4289507236
0.059759296 0.12408894 0.82456088 4290099096
0.059287403 0.12538832 0.82314473 4289506188
0.058815509 0.12668774 0.82172859 4288847491
0.058343612 0.12798713 0.82031238 4288715130
0.057871718 0.12928653 0.81889623 4288648822
0.045811284 0.051566824 0.84658635 4292135222
0.047117598 0.054710768 0.84684902 4292987708
0.046666142 0.05595389 0.84549421 4292923971
0.049268011 0.062271774 0.84598684 4292858418
0.045311771 0.059683248 0.84142971 4292794166
0.044860311 0.06092637 0.8400749 4293320761
0.088103473 0.1216177 0.87230766 4294436924
0.085876979 0.12100755 0.86928356 4294502456
0.085390553 0.12234697 0.86782378 4294503232
0.080853298 0.119111 0.86274242 4294569288
0.080370054 0.12044166 0.86129218 4294634835
0.079886802 0.12177233 0.85984194 4294635614
0.077671662 0.12113095 0.85685188 4294564961
0.077189773 0.12245786 0.85540575 4290555492
0.076707885 0.12378478 0.85395956 4286550378
0.074498139 0.12312827 0.85098594 4286346608
0.074017614 0.12445144 0.84954387 4286088307
0.073537081 0.12577459 0.84810179 4286548341
0.071332783 0.12510313 0.84514439 4286942066
0.06913121 0.12442411 0.84219521 4287072111
0.066358671 0.12307034 0.83875191 4287138670
0.06588269 0.12438099 0.83732343 4287465837
0.063688375 0.12368196 0.83439606 4287794797
0.061496794 0.12297548 0.83147681 4287665773
0.061023533 0.12427863 0.83005655 4287472006
0.058835983 0.12356085 0.82714963 4288655007
0.058364086 0.12486025 0.82573348 4289770137
0.057892192 0.12615964 0.82431734 4289507731
0.057420298 0.12745905 0.82290119 4289242762
0.056948401 0.12875845 0.82148498 4289106562
0.043175381 0.049163796 0.84743053 4292066870
0.042726651 0.050399415 0.84608388 4292463169
0.044030435 0.053541884 0.84635407 4292857914
0.043580338 0.054781251 0.84500331 4293055795
0.04662963 0.059849225 0.84686983 4293253172
0.046176806 0.061096102 0.84551096 4293319220
0.043976985 0.060421161 0.84255153 4293450549
0.043525524 0.061664283 0.84119672 4293779765
0.043074068 0.062907405 0.8398419 4294172470
0.040879771 0.062217459 0.83689892 4294305590
0.040429674 0.063456826 0.83554816 4294502979
0.039979577 0.064696193 0.83419746 4294504016
0.086661264 0.12241501 0.87351978 4294502977
0.086173467 0.12375817 0.87205595 4294503224
0.085685678 0.12510134 0.87059206 4294569535
0.081733927 0.12251838 0.86601728 4294569541
0.081248857 0.12385404 0.86456156 4294635092
0.078458019 0.12256221 0.8610428 4294635619
0.077974766 0.12389287 0.85959256 4294636103
0.075765014 0.12324551 0.85660326 4291410475
0.075283125 0.12457243 0.85515708 4288184377
0.074801244 0.12589933 0.85371095 4286476359
0.074319355 0.12722625 0.85226482 4284770391
0.073837467 0.12855315 0.85081863 4284970342
0.071635835 0.12788317 0.84785378 4285232480
0.069436923 0.12720574 0.84489709 4285823577
0.067240737 0.12652072 0.84194863 4286415714
0.064475395 0.125159 0.83850622 4286546539
0.062285114 0.12445772 0.83557546 4286680943
0.06009756 0.12374903 0.83265287 4287205746
0.059624299 0.12505218 0.83123261 4287797638
0.057440773 0.12433216 0.82832229 4288455833
0.056968875 0.12563157 0.82690614 4289114777
0.056496982 0.12693095 0.82549 4289179801
0.056025088 0.12823036 0.82407385 4289312913
0.05555319 0.12952976 0.82265764 4289111177
0.039823003 0.044269323 0.84851122 4289567294
0.039376542 0.045498684 0.84717143 4291217210
0.040097572 0.047995791 0.84691721 4292856379
0.039650202 0.049227655 0.84557462 4292792892
0.039202832 0.050459519 0.84423208 4292662584
0.038755462 0.051691383 0.84288955 4293122100
0.040053725 0.054839723 0.84315902 4293582137
0.044837989 0.061836243 0.84663618 4293845822
0.040899292 0.059235036 0.84206951 4294108218
0.042190745 0.062402189 0.84231859 4294306358
0.041739289 0.063645311 0.84096378 4294437182
0.041287832 0.064888433 0.83960891 4294569799
0.039098911 0.064192511 0.83666658 4294635851
0.038648814 0.065431878 0.83531588 4294636623
0.038198721 0.066671252 0.83396512 4294570312
0.039482005 0.069860905 0.83418965 4294570050
0.087038927 0.12716594 0.87535751 4294569019
0.086549319 0.12851413 0.87388819 4294569795
0.080299765 0.12331122 0.86722267 4294569803
0.079814695 0.12464689 0.86576694 4294569815
0.079329625 0.12598255 0.86431128 4294635363
0.076545976 0.12468275 0.86079341 4294698316
0.076062724 0.12601341 0.85934317 4292265524
0.073858365 0.12536009 0.85635453 4289828929
0.073376484 0.12668699 0.85490841 4286603854
0.072894596 0.12801391 0.85346228 4283393369
0.072412707 0.12934083 0.85201609 4283461220
0.070215106 0.12866859 0.8490479 4283527006
0.068020217 0.12798893 0.84608781 4284574041
0.067541055 0.12930834 0.84464985 4285624669
0.065350264 0.12861735 0.84170204 4285558369
0.062592104 0.12724763 0.83826059 4285496422
0.060407221 0.12654041 0.83533061 4286809195
0.058225058 0.12582573 0.83240861 4288056949
0.057751801 0.12712888 0.83098841 4288255359
0.055573657 0.12640288 0.82807881 4288388997
0.055101763 0.1277023 0.82666266 4288848779
0.05462987 0.12900169 0.82524651 4289309582
0.038949452 0.043769702 0.85096055 4289108522
0.038502991 0.04499907 0.8496207 4291212858
0.03805653 0.046228431 0.84828091 4292332105
0.035862949 0.045554049 0.84530926 4293448000
0.0383275 0.049958885 0.84668636 4293383991
0.03497275 0.048005268 0.84263778 4293318710
0.03743276 0.052422613 0.84400129 4293516596
0.034082554 0.050456494 0.8399663 4293714238
0.041758869 0.060653865 0.84615004 4294043208
0.039568536 0.059970722 0.84318805 4294370880
0.040855952 0.063140109 0.84344041 4294437687
0.040404495 0.064383231 0.8420856 4294569287
0.039953038 0.065626353 0.84073079 4294570583
0.037768155 0.064928196 0.83778507 4294637395
0.037318058 0.066167563 0.83643436 4294636366
0.038598668 0.069355711 0.83666629 4294635588
0.038147211 0.070598826 0.83531147 4294570041
0.035967775 0.069885671 0.83238214 4294569532
0.035517681 0.071125038 0.83103138 4294570046
0.080589563 0.1260716 0.86999029 4294569808
0.080103129 0.12741102 0.86853051 4294570330
0.079616703 0.12875044 0.86707073 4294569315
0.079130277 0.13008985 0.86561096 4294503504
0.076925345 0.12944673 0.86260527 4292397373
0.074150696 0.12813397 0.85909379 4290295369
0.073667452 0.12946463 0.85764354 4286936661
0.0731842 0.13079529 0.8561933 4283652699
0.072700948 0.13212594 0.85474312 4283918945
0.070506059 0.13145538 0.85176742 4284247645
0.068313852 0.13077718 0.84879994 4284771673
0.066124357 0.13009153 0.84584057 4285295448
0.063937597 0.12939832 0.84288937 4285361751
0.061184812 0.12802564 0.83944339 4285427550
0.059003957 0.12731618 0.83651 4286151012
0.056825817 0.12659928 0.83358461 4286874981
0.056352559 0.12790243 0.83216441 4287268709
0.054178454 0.1271742 0.82925141 4287599473
0.053234667 0.12977301 0.82641912 4287669642
0.039241649 0.044530794 0.85451084 4287530037
0.037629433 0.044499449 0.85206997 4290233660
0.037182972 0.045728818 0.85073012 4292856385
0.036736511 0.046958178 0.84939033 4293449798
0.03454696 0.046281569 0.84641534 4294039871
0.034101862 0.047507182 0.8450796 4294041399
0.033656761 0.048732787 0.84374386 4293975862
0.033211663 0.0499584 0.84240812 4293911093
0.032766566 0.051184013 0.84107238 4293780539
0.034057744 0.05433435 0.84135133 4294175808
0.034767952 0.056849435 0.84108526 4294569020
0.036054075 0.06001348 0.84134924 4294635321
0.037337586 0.063185148 0.84160501 4294635846
0.038618259 0.066364259 0.84185266 4294636371
0.0364374 0.065663882 0.83890355 4294636620
0.035987303 0.066903248 0.83755285 4294636101
0.037263889 0.070093617 0.83778816 4294635839
0.036812432 0.071336731 0.83643335 4294635578
0.034637019 0.070621356 0.83350062 4294635838
0.034186926 0.071860723 0.83214986 4294636354
0.080871239 0.12883642 0.87276465 4294633806
0.08038345 0.13017958 0.87130076 4294568787
0.078178518 0.12954552 0.86827946 4294436696
0.077692091 0.13088495 0.86681968 4294302285
0.077205658 0.13222435 0.8653599 4292524866
0.072721913 0.12892383 0.86029464 4290748746
0.072238669 0.13025449 0.8588444 4287325267
0.071755417 0.13158515 0.85739416 4283851095
0.071272165 0.13291582 0.85594398 4284445020
0.069081314 0.13224302 0.85296488 4284968281
0.066893131 0.13156259 0.849994 4284969046
0.064707667 0.13087474 0.84703124 4284902485
0.06252493 0.13017929 0.84407669 4285099604
0.059777517 0.12880364 0.84062618 4285295705
0.059301533 0.1301143 0.83919775 4285492319
0.057126064 0.12939885 0.83626503 4285690721
0.056651443 0.13070574 0.83484071 4286279779
0.057873584 0.13404626 0.83491248 4286808169
0.034566283 0.043332241 0.85152858 4291346766
0.034121186 0.044557862 0.85019284 4293186889
0.033676088 0.045783468 0.8488571 4293450819
0.033230986 0.047009081 0.84752136 4293713213
0.032785889 0.048234694 0.84618562 4293779511
0.032340787 0.049460299 0.84484988 4293780023
0.03189569 0.050685912 0.84351414 4293977142
0.031450592 0.051911525 0.8421784 4294172983
0.032737732 0.055064097 0.84246075 4294371896
0.032291271 0.056293465 0.8411209 4294569529
0.032997888 0.058812529 0.84085441 4294570298
0.034278609 0.061982553 0.84111768 4294636357
0.035556741 0.0651602 0.84137279 4294636623
0.035106644 0.066399567 0.84002203 4294636357
0.034656547 0.067638934 0.83867133 4294636347
0.034206454 0.068878308 0.83732057 4294636091
0.035477638 0.072074637 0.83755517 4294636346
0.033306263 0.071357042 0.8346191 4294636096
0.03285617 0.072596408 0.83326834 4294635590
0.07942903 0.12963372 0.87397683 4294569036
0.078941241 0.13097689 0.87251294 4294569037
0.076740332 0.13034059 0.86948824 4293712973
0.077965662 0.13366324 0.86958522 4292860234
0.075767472 0.13301942 0.86656868 4290754119
0.075281046 0.13435884 0.86510891 4288655180
0.07479462 0.13569826 0.86364913 4286280272
0.074308187 0.13703768 0.86218935 4283913299
0.069843382 0.13370571 0.85714483 4284310102
0.06936013 0.13503636 0.85569459 4284704084
0.067174666 0.13435757 0.85271621 4284638290
0.064991876 0.13367119 0.84974599 4284638802
0.064511351 0.13499434 0.84830391 4284834897
0.062332645 0.13429675 0.84534597 4285097557
0.060156655 0.13359158 0.84239626 4285360217
0.059678853 0.13490723 0.84096235 4285688669
0.059201054 0.13622288 0.8395285 4286148449
0.058723256 0.13753855 0.83809459 4286673762
0.058245458 0.13885421 0.83666074 4286676834
0.033250295 0.044059761 0.85263467 4292533845
0.032805197 0.045285381 0.85129893 4293451596
0.032360099 0.046510987 0.84996319 4293452867
0.033650026 0.049647026 0.85026932 4293386813
0.0314699 0.048962213 0.84729171 4293517879
0.031024801 0.050187819 0.84595597 4293584183
0.030579703 0.051413432 0.84462023 4294044215
0.030134603 0.052639045 0.84328449 4294503228
0.029689504 0.053864658 0.84194875 4294569538
0.029244406 0.055090263 0.84061301 4294570306
0.028799307 0.056315877 0.83927727 4294570562
0.030078335 0.05948193 0.83955067 4294570819
0.03250315 0.063951619 0.84088612 4294571333
0.032054417 0.065187231 0.83953947 4294571332
0.033325791 0.068374604 0.83978975 4294636867
0.032875698 0.069613978 0.83843899 4294636863
0.032425605 0.070853338 0.83708823 4294637114
0.031975508 0.072092712 0.83573753 4294570564
0.031525414 0.073332079 0.83438677 4294569294
0.031075319 0.074571446 0.83303607 4294569553
0.079779759 0.13441154 0.87581623 4294500429
0.077011235 0.13311736 0.87226123 4292985669
0.076523438 0.13446054 0.87079734 4291408700
0.076035649 0.1358037 0.86933345 4288975667
0.075547859 0.13714688 0.86786962 4286546498
0.073356435 0.13649333 0.86485791 4285227601
0.072870009 0.13783275 0.86339813 4283916114
0.070682608 0.13716793 0.86039865 4284178004
0.067931347 0.13582623 0.85689545 4284439889
0.067448094 0.13715689 0.85544521 4284372558
0.065268025 0.13647214 0.85246754 4284307534
0.063090622 0.13577975 0.84949803 4284569167
0.060915947 0.13507994 0.84653664 4284833362
0.060436785 0.13639934 0.84509867 4285227349
0.058266193 0.1356882 0.84214967 4285622104
0.061168522 0.14107239 0.84372985 4286082139
0.060687996 0.14239556 0.84228778 4286540634
0.058520135 0.14167698 0.83934683 4286999130
0.034115851 0.045459323 0.85673809 4292464709
0.031934306 0.04478728 0.85374069 4292992604
0.031489208 0.046012901 0.85240495 4293452879
0.031044109 0.047238506 0.85106921 4293583682
0.030599009 0.048464119 0.84973347 4293649468
0.02842433 0.047773324 0.84675652 4293846326
0.027980596 0.048995174 0.84542489 4294043191
0.02580989 0.048293069 0.84246016 4294241335
0.024217201 0.048226126 0.84004653 4294504770
0.024925141 0.05072929 0.83980501 4294570572
0.024482768 0.051947393 0.83847743 4294571595
0.024040395 0.053165495 0.83714986 4294636874
0.025318176 0.056326337 0.83743495 4294636354
0.029457746 0.062738717 0.84039265 4294636858
0.030727686 0.065920696 0.84065455 4294636867
0.030278955 0.067156315 0.8393079 4294637387
0.029830221 0.068391934 0.83796126 4294637635
0.031094847 0.071589038 0.83820671 4294636602
0.030644752 0.072828412 0.83685601 4294636104
0.030194659 0.074067779 0.83550525 4294569813
0.029744564 0.075307146 0.83415455 4294570329
0.078332171 0.13521181 0.87703288 4293584205
0.075569034 0.13391466 0.87347335 4290094908
0.077352948 0.13790816 0.87409425 4286553646
0.074593447 0.136601 0.87054557 4285494559
0.074105658 0.13794418 0.86908174 4284441657
0.073617861 0.13928735 0.86761785 4284376146
0.071431823 0.13862781 0.86460686 4284376658
0.069248445 0.13796079 0.86160403 4284506449
0.066502571 0.13661611 0.8580963 4284701262
0.066019319 0.13794677 0.85664606 4284569418
0.063843265 0.1372598 0.85366499 4284436299
0.061669901 0.13656518 0.85069209 4284634444
0.059499249 0.13586314 0.84772742 4284832591
0.059020087 0.13718255 0.8462894 4285161041
0.05685351 0.13646917 0.84333694 4285424467
0.0597478 0.14185782 0.84492391 4285686868
0.059267275 0.14318098 0.84348184 4286014291
0.057103436 0.14246018 0.84053755 4285686098
0.032795846 0.04618907 0.85784757 4293320013
0.030618327 0.0455148 0.85484672 4293387606
0.028443588 0.044833034 0.85185409 4293452617
0.027999852 0.046054892 0.85052246 4293713980
0.027556116 0.04727675 0.84919083 4293911610
0.02711238 0.048498616 0.84785914 4294174775
0.026668645 0.049720466 0.84652752 4294437432
0.021630485 0.045805901 0.840832 4294504249
0.022029033 0.051378921 0.83849388 4294571332
0.021587567 0.052594528 0.83716905 4294637636
0.022290094 0.05510667 0.83692163 4294702911
0.021847719 0.056324776 0.83559406 4294703163
0.031114377 0.068606608 0.84337741 4294703175
0.028952237 0.06788978 0.84042293 4294703700
0.030214187 0.071085349 0.84067595 4294637382
0.029764092 0.072324708 0.83932519 4294635321
0.029313996 0.073564082 0.83797449 4294635593
0.028863903 0.074803449 0.83662373 4294634585
0.083053574 0.14125946 0.88498276 4293643611
0.080856919 0.14063773 0.88192475 4292652097
0.080364123 0.14199466 0.88044584 4287190566
0.079871342 0.14335157 0.87896699 4281686055
0.077114128 0.14205027 0.87540442 4282007592
0.076623157 0.14340219 0.87393105 4282341688
0.074436553 0.14275295 0.8709029 4283589704
0.071687847 0.14142781 0.86736619 4284769102
0.069507211 0.1407623 0.8643558 4284835412
0.069020778 0.14210172 0.86289603 4284899408
0.068534352 0.14344114 0.86143625 4284767308
0.064107269 0.14006732 0.85639668 4284569676
0.063624024 0.14139798 0.85494643 4284699981
0.05976864 0.13867377 0.8504442 4284831822
0.059288114 0.13999693 0.84900212 4285028431
0.057124216 0.13928515 0.8460421 4285225807
0.058327064 0.14264324 0.84611803 4285357136
0.057846539 0.14396641 0.84467596 4285422153
0.030192535 0.0437911 0.85862428 4292334429
0.028019095 0.04311461 0.85562015 4293782102
0.027575359 0.044336468 0.85428846 4293715535
0.025405895 0.04364866 0.85129654 4293649475
0.024963522 0.044866763 0.84996897 4293845558
0.02452115 0.046084873 0.8486414 4294042167
0.020723788 0.052100495 0.83959091 4294636348
0.020282323 0.053316101 0.83826607 4294637373
0.02636498 0.065433033 0.84127349 4294703180
0.027625505 0.06862323 0.84153801 4294703708
0.028883424 0.071821049 0.84179437 4294703946
0.028433328 0.073060408 0.84044361 4294701880
0.027983233 0.074299783 0.83909291 4294702154
0.08159256 0.14206716 0.88621074 4290031449
0.081098408 0.14342785 0.88472778 4285966389
0.080604255 0.14478852 0.88324481 4283714320
0.078414351 0.14415705 0.88019156 4281543713
0.077921562 0.14551398 0.87871271 4282072625
0.075171545 0.14420469 0.87515104 4282604088
0.074680574 0.14555663 0.87367767 4283390014
0.072499365 0.14490138 0.87065023 4284177738
0.069757849 0.14356829 0.86711442 4284506198
0.069270059 0.14491147 0.86565053 4284835154
0.067096166 0.14423622 0.86264503 4284703053
0.066609733 0.14557564 0.86118525 4284571213
0.064439885 0.14488915 0.85819197 4284635725
0.060029976 0.14148892 0.85316765 4284700237
0.057867393 0.14078236 0.85019618 4284831308
0.057386868 0.14210552 0.84875411 4285027660
0.056906343 0.14342867 0.84731209 4285028939
0.02630984 0.03828118 0.8590337 4288985907
0.027594618 0.041396178 0.85938603 4292463176
0.028876547 0.04451862 0.8597303 4293321822
0.026707144 0.043839902 0.85672271 4294174800
0.026263408 0.04506176 0.85539109 4294043203
0.024097968 0.044371724 0.85239583 4293846077
0.025375936 0.047505476 0.85272777 4293976375
0.0249322 0.048727334 0.85139614 4294109242
0.025042279 0.066164263 0.84238517 4294703691
0.024594909 0.067396127 0.84104258 4294703960
0.02414754 0.068627991 0.83970004 4294702929
0.027102573 0.073796079 0.84156209 4294700875
0.026652478 0.075035453 0.84021139 4294700881
0.078154944 0.14831756 0.88150686 4282135090
0.075971797 0.14767636 0.87845838 4282859829
0.073228963 0.14635912 0.87489772 4283188537
0.071051776 0.14570165 0.87186688 4283518019
0.06831564 0.14436559 0.86832654 4284111181
0.067827851 0.14570877 0.86686265 4284703054
0.067340054 0.14705193 0.86539882 4284638543
0.065171562 0.14637071 0.86239403 4284571469
0.063005723 0.14568198 0.85939735 4284570956
0.060283221 0.1443084 0.8558979 4284569419
0.059316721 0.14696974 0.85299742 4284766027
0.031684455 0.11883464 0.82495314 4284369722
0.031222552 0.12010653 0.82356697 4283917912
0.048910588 0.30645648 0.75287634 4287526500
0.048400544 0.30786091 0.75134569 4287526756
0.024293814 0.036525168 0.86033273 4287915068
0.023852348 0.037740774 0.85900789 4290557760
0.024559539 0.040222354 0.85880536 4293188687
0.025838921 0.043343328 0.85915709 4293583966
0.025395187 0.044565186 0.8578254 4294044490
0.024951451 0.045787044 0.85649377 4293912118
0.022790041 0.045094788 0.85349506 4293846071
0.024063978 0.04823076 0.85383046 4294108984
0.021905296 0.047531001 0.85083997 4294371902
0.020438984 0.064855918 0.83946449 4294703444
0.019993886 0.066081524 0.83812875 4294768729
0.019548787 0.067307144 0.83679301 4294701917
0.074514806 0.14848183 0.87968296 4282790963
0.071777351 0.14716163 0.87611777 4282988595
0.069604188 0.14650193 0.87308353 4283249980
0.069114581 0.1478501 0.87161422 4283714628
0.066385627 0.14650607 0.86807489 4284244554
0.06589783 0.14784923 0.866611 4284242512
0.063733377 0.14716578 0.86360276 4284308046
0.063246951 0.1485052 0.86214298 4284306507
0.061086506 0.14781049 0.85914701 4284372042
0.031985991 0.12164255 0.82761669 4285556547
0.029856883 0.12086152 0.82471478 4286345312
0.023430038 0.036031149 0.86275458 4287010353
0.022988576 0.037246749 0.86142975 4290422336
0.023693986 0.039727308 0.86123216 4292141391
0.023251612 0.040945418 0.85990465 4293845068
0.022809235 0.042163529 0.85857707 4293911882
0.024083229 0.045290485 0.85892808 4293912128
0.023639493 0.046512343 0.85759646 4293846071
0.021482114 0.045817852 0.85459435 4293781816
0.022752021 0.048956059 0.85493314 4294241849
0.020597368 0.048254065 0.8519392 4294635842
0.020154994 0.049472176 0.85061169 4294702667
0.020818872 0.067548499 0.84218776 4294767701
0.020372411 0.068777859 0.84084791 4294767963
0.069834769 0.14931604 0.87586439 4282988856
0.067666993 0.14865036 0.87283087 4283383613
0.067177385 0.14999855 0.87136155 4283713858
0.066687778 0.15134671 0.86989224 4283844167
0.06619817 0.15269488 0.86842293 4283976003
0.065708563 0.15404306 0.86695361 4284040512
0.065218955 0.15539123 0.8654843 4284106816
0.064239733 0.15808758 0.86254567 4284632129
0.030616293 0.12239977 0.8287679 4286810457
0.028491214 0.1216165 0.82586259 4288712560
0.046377853 0.3001582 0.7603336 4287526235
0.045869172 0.30155891 0.75880706 4287526238
0.045360487 0.30295962 0.75728047 4287525985
0.044851802 0.3043603 0.75575393 4287525986
0.044343114 0.30576101 0.75422734 4287525732
0.043834433 0.30716169 0.75270081 4287460709
0.044874474 0.31093273 0.75234997 4287526246
0.02040565 0.034860402 0.86214924 4288255786
0.019965544 0.036072262 0.86082846 4291672900
0.021241874 0.03918393 0.86120194 4292794206
0.021943685 0.041668482 0.86100394 4293910346
0.021501308 0.042886592 0.85967636 4293845813
0.021058936 0.044104703 0.85834879 4293846327
0.020616561 0.045322806 0.85702121 4293978168
0.020174187 0.046540916 0.85569364 4294110265
0.019731814 0.047759019 0.85436606 4294373434
0.020626811 0.069589816 0.8443777 4294702678
0.020179443 0.07082168 0.84303516 4294768990
0.067892186 0.15147045 0.87561095 4283317558
0.065729797 0.15079881 0.8725782 4283579706
0.065240189 0.15214698 0.87110889 4283646014
0.064750582 0.15349516 0.86963958 4283776569
0.064260975 0.15484333 0.86817026 4283711284
0.063771367 0.1561915 0.86670095 4283644726
0.063281752 0.15753967 0.86523163 4283120183
0.062792145 0.15888783 0.86376232 4282663225
0.028049359 0.11982771 0.82978278 4285880661
0.027587455 0.12109959 0.82839656 4287530863
0.025467763 0.1203104 0.82549191 4289108864
0.044324052 0.29366925 0.76455623 4287525978
0.045382567 0.29958895 0.76312423 4287526234
0.048497278 0.30647308 0.76440609 4287526235
0.044365197 0.30239034 0.7600711 4287591774
0.043856513 0.30379105 0.7585445 4287591776
0.043347828 0.30519176 0.75701797 4287591521
0.04283914 0.30659243 0.75549138 4287526242
0.019544529 0.034367912 0.86456358 4286018869
0.019104429 0.035579756 0.86324286 4289513533
0.018664323 0.036791615 0.86192209 4292923462
0.019936621 0.039905511 0.86229897 4293451600
0.019495156 0.041121118 0.86097413 4293975875
0.017344015 0.040427178 0.85795981 4293845814
0.018612225 0.043552324 0.85832441 4293715767
0.018170757 0.044767939 0.85699958 4294044728
0.016023705 0.044062749 0.85399759 4294373179
0.017287828 0.047199145 0.85434991 4294570558
0.065949589 0.15362489 0.87535769 4283449143
0.063792616 0.15294726 0.87232554 4283514682
0.063303009 0.15429544 0.87085623 4283514679
0.062813401 0.15564361 0.86938691 4283317299
0.06232379 0.15699178 0.8679176 4283118383
0.061834183 0.15833995 0.86644828 4281868844
0.061344571 0.15968812 0.86497897 4280628032
0.027876893 0.1239142 0.8310703 4288257926
0.024106124 0.12106314 0.82663637 4289505680
0.043332309 0.29310203 0.76733685 4287525470
0.044895947 0.29761901 0.76744139 4287525724
0.043878578 0.3004204 0.76438832 4287525979
0.044918727 0.30417338 0.76406872 4287591516
0.042861208 0.30322179 0.76133519 4287591773
0.040291101 0.30147621 0.75821018 4287591775
0.017408403 0.030778103 0.86657721 4284632889
0.018683417 0.033875406 0.86697793 4286474793
0.018243315 0.035087265 0.86565721 4288314428
0.017803214 0.036299109 0.86433649 4290821967
0.017363109 0.037510969 0.86301571 4293254217
0.016923005 0.038722828 0.86169493 4293647938
0.018189918 0.041842699 0.86207116 4293975100
0.016042801 0.041146532 0.85905343 4293977142
0.015602699 0.042358384 0.85773271 4294043703
0.015162596 0.043570235 0.85641193 4294241848
0.014722491 0.044782102 0.85509121 4294504509
0.01428239 0.045993954 0.85377043 4294571330
0.012143523 0.045275323 0.85077733 4294703172
0.062834635 0.15239935 0.8750115 4283449909
0.062345028 0.15374751 0.87354219 4283449910
0.06185542 0.1550957 0.87207288 4283515956
0.061365813 0.15644386 0.87060356 4282857522
0.060876202 0.15779203 0.86913425 4282200873
0.060386594 0.1591402 0.86766493 4282659104
0.021276249 0.11264224 0.83022594 4283175495
0.020818433 0.11390287 0.82885206 4285687662
0.023665568 0.11927964 0.83054495 4288186502
0.023205027 0.12054777 0.82916284 4289176989
0.021094698 0.11975031 0.8262555 4290228896
0.045982387 0.30673689 0.76848608 4287525981
0.045470525 0.30814636 0.76694995 4287525980
0.041357234 0.30405325 0.76259923 4287591517
0.037250362 0.29994276 0.75826758 4287526238
0.016549949 0.030287117 0.8689841 4285223478
0.016111204 0.031495228 0.86766744 4284373808
0.01738221 0.034594752 0.86807156 4287533610
0.015233727 0.033911429 0.86503416 4290620221
0.016502008 0.037018456 0.86543012 4292140368
0.014356246 0.03632763 0.86240083 4293582406
0.013917506 0.037535734 0.86108416 4293779517
0.015181696 0.040654026 0.86146784 4293976634
0.014741594 0.041865878 0.86014706 4294174775
0.014301492 0.04307773 0.85882634 4294307133
0.01386139 0.044289581 0.85750556 4294505284
0.011723801 0.043576255 0.85450083 4294637125
0.020380473 0.11212992 0.83273751 4283522636
0.019922657 0.11339055 0.83136362 4285688936
0.019464841 0.11465117 0.82998973 4287605381
0.02065544 0.11797208 0.83015251 4289440146
0.021843374 0.12130053 0.83030725 4290165920
0.021382833 0.12256867 0.82892519 4290885284
0.044468995 0.30757356 0.76975805 4287460445
0.043957133 0.308983 0.76822191 4287525981
0.037800752 0.30173749 0.76225042 4287525981
0.015691511 0.029796146 0.87139106 4285947702
0.015252773 0.031004243 0.87007439 4285746467
0.014814029 0.032212354 0.86875772 4285609767
0.01437529 0.033420451 0.86744106 4288648490
0.013936551 0.034628555 0.86612445 4291739453
0.013497809 0.035836659 0.86480778 4292728400
0.01135751 0.035139836 0.86177921 4293713988
0.010920133 0.036344193 0.8604666 4293976887
0.012181589 0.039460965 0.86085778 4294174007
0.011742847 0.040669076 0.85954112 4294241335
0.011304108 0.041877165 0.85822445 4294307651
0.010865368 0.04308527 0.85690778 4294505807
0.021134553 0.11366507 0.83680558 4284894544
0.020675376 0.11492946 0.83542758 4286413944
0.01856908 0.11413886 0.83250123 4287927434
0.018111264 0.11539948 0.83112735 4288916123
0.01929784 0.1187226 0.83129358 4289967263
0.020481735 0.12205328 0.83145165 4290427042
0.020021195 0.12332141 0.8300696 4290950057
0.01111492 0.028574012 0.86827177 4286269985
0.011813868 0.031037346 0.86811638 4286804783
0.011376489 0.032241702 0.86680382 4289842493
0.010939112 0.033446051 0.86549121 4292857926
0.010501735 0.0346504 0.86417866 4293385296
0.0089325737 0.034583256 0.86172253 4293845572
0.0084961057 0.035785109 0.86041272 4294108473
0.0080596339 0.036986962 0.85910285 4294371896
0.0076231658 0.038188808 0.85779303 4294373944
0.0071866959 0.039390661 0.85648316 4294308673
0.0067502242 0.040592514 0.85517329 4294506570
0.0046243966 0.039864764 0.85217273 4294703430
0.0041892901 0.041062854 0.85086691 4294703170
0.019776924 0.11441562 0.83794659 4288449137
0.019317746 0.11568 0.83656859 4289310857
0.018858567 0.11694439 0.83519059 4290161553
0.018399388 0.11820877 0.83381259 4290294938
0.01794021 0.11947314 0.83243459 4290426784
0.017481033 0.12073752 0.83105659 4290756007
0.017021853 0.1220019 0.8296786 4291019699
0.011395473 0.029343531 0.87182838 4284896050
0.0098244492 0.02928742 0.86935633 4286867999
0.010520715 0.031752236 0.86920321 4288838967
0.010083336 0.032956593 0.86789066 4290952783
0.0096459594 0.034160942 0.86657804 4293122383
0.0092085823 0.035365291 0.86526549 4293517135
0.0087712053 0.036569633 0.86395293 4293977413
0.0055134855 0.034585454 0.8597827 4294109242
0.0050783772 0.035783559 0.85847694 4294240826
0.0063326955 0.038902216 0.8588776 4294307641
0.0058962256 0.040104069 0.85756773 4294439231
0.0037730578 0.039377846 0.85455972 4294571844
0.001652509 0.038644008 0.85155982 4294703424
0.0029028431 0.041774042 0.85194814 4294703419
0.018419323 0.11516614 0.83908761 4289045650
0.017960146 0.11643053 0.83770961 4289243802
0.017500967 0.11769491 0.83633161 4289508249
0.017041788 0.11895929 0.83495361 4289967768
0.01658261 0.12022367 0.83357561 4290426274
0.016123433 0.12148805 0.83219761 4290823084
0.032259591 0.29176497 0.77074075 4287394397
0.031755902 0.29315194 0.76922917 4287460957
0.0089704469 0.02879899 0.87175083 4283981621
0.0085339788 0.030000836 0.87044096 4287401252
0.0080975108 0.031202681 0.86913115 4290816057
0.0087901689 0.033671491 0.86897755 4292138573
0.0083527919 0.03487584 0.86766493 4293385288
0.0050972626 0.03290046 0.86347544 4293714499
0.0046621561 0.034098551 0.86216968 4294042942
0.0042270534 0.035296641 0.86086392 4294044217
0.0037919451 0.036494747 0.85955817 4294044985
0.0033568386 0.037692837 0.85825241 4294307898
0.0029217284 0.038890943 0.85694665 4294571075
0.0024866257 0.040089034 0.85564095 4294637644
0.0020515174 0.041287139 0.85433519 4294703428
0.0016164109 0.04248523 0.85302937 4294703164
0.0011813045 0.043683328 0.85172367 4294638140
0.00074619427 0.044881433 0.85041785 4294703676
0.062717289 0.16523711 0.88795453 4288578148
0.062221773 0.16660154 0.88646746 4288519027
0.017520886 0.11465229 0.84160668 4289043334
0.017061708 0.11591667 0.84022868 4289568910
0.018238969 0.11923904 0.84041327 4289175959
0.017778428 0.12050717 0.83903122 4288785567
0.017317887 0.1217753 0.83764911 4289575592
0.016857347 0.12304343 0.83626705 4290364338
0.016396806 0.12431157 0.83488494 4290891451
0.030770386 0.29258826 0.77199239 4287459679
0.028228287 0.29083607 0.76882803 4287525983
0.0081164464 0.028310545 0.87414527 4285485639
0.0076799765 0.029512398 0.87283546 4285024056
0.0055512451 0.028819241 0.86977971 4288386345
0.0068070404 0.031916089 0.87021577 4291673658
0.0091865566 0.036288947 0.87180209 4292596299
0.0087478179 0.037497051 0.87048542 4293582145
0.0066222623 0.036795087 0.86743921 4293845814
0.0050611626 0.036723487 0.86497635 4294108215
0.0046246946 0.03792534 0.86366653 4294175543
0.0041882228 0.039127193 0.86235666 4294241849
0.00038892403 0.036478892 0.85762048 4294439738
-4.4822693e-05 0.037673242 0.85631883 4294637639
-0.00047856383 0.038867578 0.85501719 4294637908
-0.00091230869 0.040061928 0.85371548 4294703688
-0.0013460536 0.041256279 0.85241383 4294703676
-0.00010514259 0.044394508 0.8528049 4294703676
-0.00054025277 0.045592614 0.85149908 4294703675
0.0630721 0.15448083 0.89798009 4285427289
0.062577948 0.1558415 0.89649719 4285164627
0.062083803 0.15720218 0.89501423 4285623628
0.061747745 0.1646826 0.89067292 4287267676
0.061252233 0.16604702 0.88918591 4288054887
0.060756721 0.16741145 0.88769883 4288122737
0.017798413 0.11745554 0.84432185 4288452482
0.017337872 0.11872367 0.84293979 4288651403
0.016877331 0.1199918 0.84155768 4289243027
0.01641679 0.12125994 0.84017563 4289766054
0.015956249 0.12252806 0.83879352 4290691512
0.015495708 0.12379619 0.83741146 4291612353
0.029784851 0.29202461 0.7747556 4287261536
0.027246332 0.29027444 0.77158129 4287459680
0.025219731 0.28929985 0.76883227 4287723104
0.0051350109 0.02713424 0.87347245 4286138928
0.0046999045 0.02833233 0.87216669 4286083125
0.004264798 0.029530428 0.87086093 4289315386
0.0055165552 0.032629512 0.87130034 4292528701
0.0062038638 0.035101287 0.87115127 4293121600
0.0057664867 0.036305636 0.86983865 4293713724
-0.001963187 0.029223293 0.86101681 4293977913
-0.0023946632 0.0304114 0.85972196 4294175289
-0.0039462093 0.030319631 0.85727733 4294307641
-0.0043767728 0.03150522 0.85598522 4294439743
-0.0020116977 0.035902984 0.85755396 4294571334
-0.0024445336 0.037094824 0.85625499 4294637895
-0.0028773677 0.038286671 0.85495609 4294703944
-0.0021947175 0.040770881 0.85479331 4294703938
-0.0026284624 0.041965231 0.85349166 4294703933
-0.0013915896 0.045105696 0.85388613 4294703932
0.063751295 0.15594152 0.90231347 4286019154
0.061611101 0.15528853 0.89920801 4286150229
0.061116952 0.1566492 0.89772511 4286215762
0.060622804 0.15800989 0.89624214 4286545486
0.061769247 0.16139925 0.89636534 4286806609
0.061273735 0.16276367 0.89487833 4286873684
0.060778223 0.16412809 0.89339125 4286873688
0.060282707 0.16549253 0.89190423 4287201116
0.059787195 0.16685696 0.89041722 4287530088
0.015724014 0.1136246 0.84664476 4287793011
0.015264835 0.11488898 0.84526676 4287990394
0.016436774 0.11820829 0.84546626 4287860353
0.015976233 0.11947642 0.8440842 4287734162
0.017144024 0.12280693 0.84427154 4289247907
0.016682122 0.12407881 0.84288538 4290756274
0.014594611 0.12328081 0.83993793 4291811520
0.01413407 0.12454894 0.83855587 4292793539
0.028295644 0.2928479 0.77600724 4287197026
0.025762489 0.29109475 0.7728284 4287525730
0.0042836703 0.026647329 0.87585944 4285488179
0.0038485639 0.027845427 0.87455368 4286538777
0.0034134574 0.029043518 0.87324792 4287524146
0.002978351 0.030241616 0.87194216 4290294858
0.0042260848 0.03334292 0.87238497 4292989759
0.003789613 0.034544781 0.87107509 4293253940
-0.0028074048 0.028740458 0.86338383 4293451832
-0.0032388754 0.029928543 0.86208898 4293847099
-0.0036703516 0.03111665 0.86079413 4294306875
-0.0052192155 0.031023391 0.8583473 4294439226
-0.005649779 0.032208979 0.85705519 4294572102
-0.0049647707 0.034680918 0.85690957 4294637650
-0.0053962413 0.03586901 0.85561472 4294703943
-0.0041570943 0.038994141 0.85603172 4294703932
-0.0018078238 0.043420695 0.85757887 4294703677
-0.0039108861 0.042674199 0.85456949 4294703933
-0.0026780367 0.045816883 0.85496736 4294703933
-0.0031131469 0.047014989 0.85366154 4294703933
0.013840817 0.091852427 0.85831517 4286544210
0.013386633 0.093103051 0.85695213 4286216786
0.012932453 0.094353668 0.85558915 4286216273
0.01247827 0.095604293 0.85422617 4286150481
0.059655938 0.1574569 0.89895308 4286347345
0.060799722 0.16084471 0.89908367 4286610000
0.010661539 0.10060679 0.84877414 4286872403
0.010207359 0.10185741 0.84741116 4286872918
0.0097531751 0.10310803 0.84604812 4286938457
0.0092989933 0.10435866 0.84468514 4287069788
0.014366399 0.11437513 0.84778577 4287463541
0.01390722 0.11563951 0.84640777 4287660154
0.013448042 0.11690389 0.84502977 4288254335
0.014614595 0.12022919 0.84522867 4288912537
0.015778348 0.12356191 0.84541935 4290296499
0.015316445 0.12483379 0.84403318 4291741118
0.013232972 0.12403359 0.84108239 4292137928
0.023776758 0.29329699 0.77256942 4287788131
0.0034323446 0.026160412 0.87824637 4285423948
0.0029972382 0.027358517 0.87694061 4284833590
0.0025621317 0.028556615 0.87563485 4286938399
0.0021270253 0.029754706 0.87432909 4288976943
0.0016919188 0.030952804 0.87302333 4291218494
0.0012568105 0.032150909 0.87171757 4293449534
0.0024991427 0.035258196 0.87215972 4293321533
-0.0040831082 0.029445708 0.86445606 4293191232
-0.0045145787 0.030633792 0.86316121 4293782340
-0.0049460549 0.031821899 0.86186635 4294373184
-0.0064922366 0.031727158 0.8594172 4294570557
-0.0058090016 0.034198083 0.85927665 4294702915
-0.0062404741 0.035386167 0.8579818 4294768713
-0.0066719446 0.036574259 0.85668695 4294769218
-0.0071034208 0.037762359 0.8553921 4294769468
-0.004759565 0.042188801 0.85694897 4294703676
-0.0051933099 0.043383151 0.85564733 4294703676
-0.005627051 0.044577487 0.85434568 4294638399
-0.0060607996 0.045771845 0.85304397 4294703938
-0.0031749569 0.050882235 0.85513175 4294703948
0.012952166 0.091344163 0.86080676 4286937683
0.012497984 0.092594787 0.85944378 4286610002
0.0120438 0.093845412 0.85808074 4286282066
0.01158962 0.095096029 0.85671777 4286281554
0.011135437 0.096346654 0.85535479 4286281298
0.010681255 0.097597279 0.85399175 4286412114
0.0085917972 0.096822351 0.8510077 4286478162
0.0097728893 0.10009853 0.85126573 4286675027
0.0076861568 0.099316098 0.84828985 4286872150
0.0088645257 0.10259977 0.84853977 4286938202
0.008410342 0.10385039 0.84717673 4286938204
0.0079561602 0.10510102 0.84581375 4286937951
0.0075019775 0.10635164 0.84445071 4286938214
0.011383062 0.11307384 0.84733438 4287133293
0.010925246 0.11433447 0.84596044 4287334269
0.010467431 0.1155951 0.84458655 4288714893
0.013252942 0.12098194 0.84637308 4290030755
0.01117207 0.12018319 0.84341484 4291349432
0.015569692 0.12765941 0.846753 4292660415
0.011871319 0.12478633 0.8422268 4292466885
0.022794804 0.29273537 0.77532268 4287525219
0.022292931 0.29411733 0.77381659 4287657058
0.0025810078 0.025673501 0.88063335 4286014286
0.0021458976 0.026871599 0.8793276 4285290059
0.0017107911 0.028069705 0.87802184 4284564280
0.002954565 0.031164199 0.87848365 4287727909
0.0025180951 0.032366052 0.87717384 4290882348
0.00040547177 0.031663992 0.87410456 4292069938
