# .PCD v0.7 - Point Cloud Data file format
VERSION 0.7
FIELDS x y z
SIZE 4 4 4
TYPE F F F
COUNT 1 1 1
WIDTH 545
HEIGHT 1
VIEWPOINT 0 0 0 1 0 0 0
POINTS 545
DATA ascii
-0.06260521 0.16653278 -0.060476083
-0.063232251 0.17379019 -0.06099163
-0.067887865 0.15452008 -0.05014649
-0.065445445 0.16248177 -0.053791862
-0.074976891 0.17659727 -0.050589282
-0.066111811 0.17405707 -0.054488808
-0.073214799 0.18058489 -0.053121243
-0.06883017 0.18079649 -0.056282759
-0.024755251 0.070527345 -0.036319502
-0.017308943 0.067372598 -0.037473928
-0.0096217822 0.068705097 -0.036620233
-0.026020566 0.078975163 -0.036990121
-0.018288324 0.077784978 -0.038788043
-0.0068346057 0.078162238 -0.037430171
0.00018869751 0.083281696 -0.0361237
-0.025486616 0.086272739 -0.036666248
-0.018090766 0.087420471 -0.037817586
-0.007385042 0.08684773 -0.037186619
-0.072482929 0.15208517 -0.039133519
-0.068163566 0.1524269 -0.041902684
-0.073638283 0.16361882 -0.039630923
-0.065795518 0.16155547 -0.043016281
-0.076297894 0.17319365 -0.042550392
-0.067510739 0.17227127 -0.04249201
-0.04008482 0.034166433 -0.027147572
-0.030515188 0.034037124 -0.027720513
-0.018565284 0.034295309 -0.026008453
-0.0081745777 0.034738738 -0.024843127
-0.03950553 0.04013136 -0.026870904
-0.030004229 0.042443667 -0.028445324
-0.018304531 0.041637439 -0.027865035
-0.0061018602 0.04135552 -0.026369825
0.0048852959 0.042946897 -0.025346771
0.013955837 0.045863286 -0.024804043
-0.026569081 0.054776751 -0.026774336
-0.018028101 0.05418878 -0.032098576
-0.0061660069 0.054054234 -0.032438785
0.0056646666 0.05424419 -0.030248377
0.017424671 0.054927766 -0.027252855
0.024299949 0.058428001 -0.024783801
-0.028440813 0.0663587 -0.029535858
-0.021364735 0.062987298 -0.034853648
-0.0048922929 0.06537769 -0.035126779
0.0057848557 0.066114701 -0.032579575
0.017969001 0.065690875 -0.028477622
0.024773747 0.068011113 -0.024733536
-0.031536866 0.077967159 -0.03011743
-0.0019369274 0.074221559 -0.035815507
0.0058348523 0.078116544 -0.033909339
0.017794298 0.077877611 -0.028544115
0.025164841 0.078190073 -0.024826171
-0.029541358 0.08980827 -0.02854139
-0.018802729 0.093908221 -0.03289713
-0.0050700102 0.092745543 -0.034339719
0.0059550516 0.090671614 -0.031876415
0.016818523 0.089445844 -0.027144279
0.0245924 0.085172653 -0.02427505
-0.025978332 0.097795852 -0.024275798
-0.017585475 0.097913302 -0.026390554
-0.0065794326 0.098192558 -0.028012654
0.0046083285 0.097337104 -0.026613796
0.01251565 0.096626654 -0.024308302
-0.073636882 0.15153289 -0.029992918
-0.065420784 0.15040551 -0.029787207
-0.076142922 0.16216344 -0.030139409
-0.063336484 0.16285816 -0.029826548
-0.075451747 0.1699269 -0.031529576
-0.069008455 0.16988844 -0.030891854
-0.01447935 0.175604 -0.026331345
-0.0098823626 0.17488997 -0.027180854
-0.014721829 0.18289457 -0.026145481
-0.011141469 0.18110484 -0.02750985
-0.051031582 0.034377478 -0.012728976
-0.042404559 0.034111377 -0.0182328
-0.030286415 0.03433089 -0.020930557
-0.017822865 0.03425378 -0.020760737
-0.0057834843 0.034398232 -0.019750336
0.0058170846 0.034492057 -0.017538726
0.014981489 0.034928005 -0.01603777
-0.048712626 0.037038349 -0.012308825
-0.043066218 0.042412873 -0.017439183
-0.029810537 0.038870826 -0.016317101
-0.018200632 0.038015742 -0.015999239
-0.0061552669 0.038099796 -0.014675557
0.0068362197 0.038335022 -0.019791007
0.018378578 0.041699305 -0.019388389
0.026154 0.046750523 -0.015220899
-0.039339349 0.051885277 -0.013560905
-0.030872088 0.054042175 -0.018052403
0.021750882 0.050078653 -0.022847855
0.02867192 0.054280348 -0.017939463
-0.062319625 0.070138462 -0.013623901
-0.05299294 0.0686993 -0.014082114
-0.04222678 0.065910086 -0.014656458
-0.03277218 0.065239362 -0.018690743
0.030358952 0.065823719 -0.019386306
0.037016768 0.067802593 -0.013199683
-0.073860809 0.081002034 -0.013763873
-0.065929957 0.078338593 -0.016837046
-0.05435437 0.077640936 -0.019063873
-0.042247783 0.077564649 -0.019095251
-0.034759391 0.076561034 -0.02173543
0.031257611 0.077718467 -0.019702815
0.03745991 0.079575203 -0.013911635
-0.075037412 0.089885578 -0.014212373
-0.066317551 0.090226114 -0.017799014
-0.054218985 0.08992096 -0.021493297
-0.042313352 0.089920714 -0.022332273
-0.034013122 0.093056343 -0.023641866
0.021027563 0.093904957 -0.023025891
0.030397477 0.090173617 -0.019257592
0.037704654 0.088127598 -0.014217995
-0.074212395 0.098897129 -0.013161171
-0.066268392 0.10158736 -0.015975159
-0.054376986 0.10199102 -0.020042067
-0.042360727 0.10209519 -0.021126231
-0.030483823 0.10279827 -0.022312908
-0.018306522 0.10445227 -0.022888349
-0.0055976957 0.10417742 -0.022909191
0.0061771371 0.10288864 -0.021650461
0.018039977 0.10232853 -0.020368503
0.029086716 0.10151853 -0.015753809
-0.063687004 0.11106651 -0.013820888
-0.053974126 0.113641 -0.015907332
-0.041837435 0.11378271 -0.016452573
-0.030021699 0.1133212 -0.016666299
-0.017869553 0.11405709 -0.017129134
-0.006091469 0.11405183 -0.018159825
0.0058077262 0.114149 -0.018115468
0.017205348 0.11337527 -0.015200929
0.02601126 0.10971124 -0.013020554
-0.049296953 0.12071075 -0.012616625
-0.044211496 0.12081599 -0.012703747
-0.0057572611 0.12062715 -0.012700069
0.0064246436 0.12091178 -0.013265259
0.01301515 0.12083 -0.01221385
-0.072470449 0.14391351 -0.0129655
-0.068873324 0.14357746 -0.013484728
-0.074956626 0.15077683 -0.01816823
-0.064119503 0.14916071 -0.018145386
-0.076434232 0.16153231 -0.018773032
-0.066126309 0.16213991 -0.018238243
-0.037674706 0.1631368 -0.013047864
-0.029470148 0.16277221 -0.014799818
-0.017362695 0.16396335 -0.015765844
-0.010872005 0.16567105 -0.018373147
-0.072489098 0.168081 -0.022851801
-0.070797101 0.168292 -0.023709999
-0.03743897 0.1694486 -0.012933071
-0.029048832 0.17375733 -0.016446576
-0.018347405 0.17338656 -0.018440479
-0.010204318 0.1711043 -0.021496046
-0.026056461 0.18203348 -0.014428207
-0.018982302 0.18372676 -0.018636312
-0.064977199 0.033990175 -0.0047564935
-0.054096725 0.033585943 -0.0060659871
-0.044195741 0.033788823 -0.0063017677
0.009038032 0.034714758 -0.0049207523
0.016464841 0.034785006 -0.006067168
-0.064836837 0.040700983 -0.0045814873
-0.054303896 0.042294204 -0.0087112151
-0.043056469 0.043030262 -0.0099809356
-0.029999008 0.038398013 -0.0058814394
-0.018095717 0.038592573 -0.0059090392
-0.006024763 0.03895162 -0.0060648285
0.0041215755 0.03838329 -0.0074487985
0.021526238 0.039216839 -0.0080288397
0.029889815 0.042743225 -0.005071016
0.040450543 0.044604179 -0.0031737718
0.048861898 0.047435999 -0.00062094798
-0.053586885 0.054126784 -0.0055427458
-0.042049512 0.05380455 -0.010971326
-0.034274749 0.054410078 -0.010786049
0.032840852 0.051876955 -0.009055526
0.041688584 0.054503355 -0.0060343137
0.051329341 0.05519256 -0.0030751191
-0.074473217 0.070402034 -0.0029469796
-0.06601613 0.065954879 -0.0053706025
-0.055151541 0.063044436 -0.0080036353
-0.038662899 0.060663398 -0.011982
0.041557595 0.065751113 -0.0058018155
0.051506661 0.063049346 -0.0019479003
-0.084366903 0.083106451 -0.00099999947
-0.078596808 0.078088105 -0.0061700419
-0.071274072 0.073875263 -0.011340734
0.041926403 0.078113995 -0.0062267524
-0.085114352 0.090233184 -0.0022691791
-0.080800846 0.089539468 -0.0081277685
0.041715682 0.090378731 -0.0064714677
-0.084645599 0.099281631 -0.0017054274
-0.079262175 0.10252529 -0.0071357465
-0.071105197 0.10737519 -0.011450839
0.034158763 0.10496767 -0.0099871159
0.038735993 0.10152069 -0.0052565914
-0.085483745 0.118304 -0.0011776768
-0.077912472 0.11399744 -0.0049261539
-0.067188881 0.11569658 -0.0097190542
-0.057644486 0.11925957 -0.011103285
-0.030178785 0.119262 -0.011116896
-0.019988529 0.11951309 -0.011310721
0.021010576 0.11807383 -0.010028038
0.029873177 0.11384973 -0.005912832
0.03657712 0.1085076 -0.0020275502
-0.085969232 0.12563264 -0.0019998322
-0.078358494 0.12584165 -0.006276628
-0.066184491 0.12608264 -0.0086839357
-0.053877354 0.12604898 -0.006839308
-0.041810546 0.12532204 -0.0064338841
-0.030502224 0.1229633 -0.0053208182
-0.017766133 0.12347785 -0.0059371563
-0.0057184123 0.12575388 -0.006606007
0.0061747404 0.12594941 -0.0064680008
0.017440479 0.12348552 -0.0050592371
0.025494089 0.12065622 -0.001875909
-0.084596202 0.1325175 -0.0012185965
-0.077994265 0.13778211 -0.0048201787
-0.065807037 0.13826996 -0.0078565143
-0.055545628 0.13756871 -0.0033755626
-0.076821655 0.15018687 -0.0062055597
-0.063226014 0.15033939 -0.0059040971
-0.053753156 0.14953519 -0.0023525688
-0.041952386 0.15109208 -0.0050949883
-0.031102916 0.15425789 -0.0049302876
-0.074806213 0.15836735 -0.0077263159
-0.068510257 0.15858209 -0.0071870005
-0.051164303 0.16069607 -0.0036152732
-0.042571422 0.16157104 -0.0086133145
-0.029381087 0.16128282 -0.0056741228
-0.0196323 0.16108422 -0.0082374047
-0.041021667 0.17177956 -0.0057415986
-0.03035187 0.17386818 -0.006705469
-0.023432299 0.17125276 -0.011666475
-0.026541628 0.18119998 -0.0093308482
-0.023261888 0.18232299 -0.011050778
-0.072420724 0.03528811 0.0049301013
-0.066380151 0.033871207 0.0062240306
-0.054138303 0.033635676 0.0057731341
-0.04183007 0.034094948 0.005854148
-0.034098078 0.033780664 0.0089673912
-0.00056439388 0.035454366 0.0094671836
0.0051675006 0.034438293 0.0051760185
0.019269826 0.034836132 0.0043566911
0.028213281 0.03500288 0.0078016222
-0.072409123 0.036908545 0.0047921021
-0.067449927 0.042367283 0.0063342708
-0.057996862 0.046977635 0.010079991
-0.038789548 0.036184952 0.01100505
-0.02706155 0.038152192 0.0051850127
-0.018095165 0.038309831 0.0060311928
-0.006234698 0.038357131 0.0060045496
0.0035095776 0.036898982 0.0028541274
0.018165875 0.036190502 0.0061419327
0.032098509 0.036837898 0.0035552741
0.041926749 0.040259451 0.0059879785
0.051043238 0.045884829 0.006553947
-0.062154479 0.059317112 0.0078491727
-0.056835622 0.053751174 0.0063914526
0.05685658 0.054061856 0.0054034446
0.060333166 0.059068311 0.0099952342
-0.075953133 0.068000376 0.0065062102
-0.067669891 0.061889276 0.0054354896
0.045844734 0.069343552 0.0019737775
0.055695735 0.06767951 0.0044887154
0.060486179 0.063760743 0.0094787003
-0.08540085 0.080763161 0.0071059894
-0.082139365 0.0755248 0.0053309612
0.045994695 0.078058712 0.0056048739
0.052504305 0.072757028 0.0094475178
-0.087757684 0.090091743 0.0059571397
0.045206759 0.090381213 0.0056768646
-0.086953163 0.10209111 0.0060470346
-0.083592735 0.107021 0.00072878035
0.041823935 0.10239128 0.0055612773
-0.088455997 0.11459357 0.0061280876
-0.083103225 0.1105865 0.0011044682
0.032707032 0.11646155 0.0057719592
0.037604738 0.11013426 0.0062904786
-0.09048523 0.12579182 0.0059476048
-0.048548199 0.13121849 0.000443842
-0.041900154 0.12903589 0.005640998
-0.030303758 0.12600045 0.0059138429
-0.017992718 0.12756309 0.0059152469
-0.0058431407 0.13019277 0.0057541537
0.0061304802 0.13082527 0.0056094909
0.018050814 0.12734972 0.0058657355
0.026686981 0.12214379 0.0065461448
-0.087665804 0.13732132 0.0061787325
-0.08273457 0.1417913 0.0012014045
-0.049633525 0.13878171 0.0050634984
-0.047159228 0.13353246 0.0084070275
-0.086560942 0.14866075 0.0084819673
-0.078904249 0.15252325 0.0052038459
-0.065569974 0.1551294 0.0056078029
-0.05067531 0.1496813 0.0085330093
-0.043222964 0.15046936 0.0053096865
-0.034402087 0.1540828 0.0011484167
-0.072746463 0.15626501 0.00418346
-0.070357338 0.1560934 0.0072536855
-0.053492699 0.16009891 0.0054460228
-0.04243971 0.16174302 0.0043957573
-0.032115273 0.1581938 0.0019309442
-0.040615954 0.16929361 0.0014407012
-0.0354998 0.17123 0.000174393
-0.063796587 0.034629714 0.016596399
-0.056341343 0.033684757 0.018312667
-0.036299083 0.035290036 0.018920084
-0.033103812 0.034251675 0.017427551
-0.00051302137 0.035470776 0.014731919
0.0050408524 0.03460972 0.018587183
0.019496815 0.034912504 0.020494061
0.02762574 0.035147823 0.016458999
-0.063352175 0.039814267 0.016260976
-0.055453308 0.044536524 0.018159706
-0.036901999 0.036214299 0.0131672
-0.026183469 0.037780974 0.018525666
-0.017980218 0.038193472 0.018025555
-0.0056952438 0.038179584 0.018153988
0.0015727726 0.037118729 0.022140455
0.021191621 0.036245361 0.015890939
0.032179296 0.037113711 0.020262962
0.04193015 0.040438622 0.018302033
0.051284641 0.045729201 0.017607495
-0.062542327 0.059232865 0.015786892
-0.053255796 0.05433346 0.01800218
0.057468705 0.053695906 0.018551966
0.060343999 0.058958288 0.014752734
-0.076025791 0.068204604 0.017882505
-0.067551367 0.062110305 0.019138135
-0.059207227 0.060580123 0.023351699
0.046354271 0.07075128 0.021885766
0.05727376 0.068087481 0.020011395
0.060610063 0.064244568 0.015236714
-0.085610293 0.080740787 0.017206039
-0.081779927 0.075360574 0.018737011
0.045959681 0.07845021 0.017955026
0.052771039 0.073027954 0.016238175
-0.088602677 0.090244025 0.018187063
0.044867072 0.090369977 0.017662577
-0.087935179 0.10221948 0.018018909
0.041527636 0.10215657 0.017663719
-0.090357877 0.11379772 0.018192897
0.032871127 0.11636308 0.018253505
0.037630122 0.11001483 0.017545162
-0.093812406 0.12553455 0.017762424
-0.041920532 0.12771532 0.018436557
-0.030315958 0.12512213 0.018213099
-0.018025666 0.12746355 0.017990228
-0.0058354968 0.13040343 0.017975889
0.00623604 0.13098483 0.018010516
0.018062299 0.1275038 0.018075673
0.026783828 0.1223396 0.017794903
-0.090848356 0.13784581 0.017697986
-0.050099604 0.13905115 0.01846686
-0.04702815 0.13388699 0.016545113
-0.089465648 0.14950538 0.017767657
-0.07934501 0.15518288 0.018424196
-0.061372112 0.15586886 0.018034233
-0.054144684 0.15143859 0.017711233
-0.073741741 0.15616117 0.01748248
-0.067224011 0.15621731 0.018124595
-0.063483477 0.034604426 0.030210523
-0.054041363 0.034281831 0.030132182
-0.041842375 0.034354404 0.03092749
-0.033991922 0.034721088 0.028441396
0.0099371048 0.035219356 0.027938692
0.016912566 0.034991294 0.029489743
-0.064106807 0.041569181 0.030764222
-0.057049237 0.046589732 0.028205179
-0.02754757 0.038204391 0.029953552
-0.017921655 0.03861703 0.030053666
-0.0060066506 0.03889811 0.030124523
0.0051721381 0.038411267 0.029397305
0.022686195 0.037229661 0.032380439
0.029920748 0.041924905 0.029889667
0.041063644 0.044454947 0.028055355
0.048616868 0.046593469 0.025154533
-0.051743381 0.053959232 0.03050926
0.033739336 0.052020568 0.033630066
0.041841403 0.054046996 0.031756155
0.052079607 0.054768786 0.027745949
-0.074247405 0.070105806 0.02767493
-0.066015266 0.066495016 0.030091388
-0.054875802 0.063303269 0.031713992
0.041733462 0.065817073 0.03020566
0.052821115 0.065027349 0.02699928
-0.084337726 0.082638435 0.025778886
-0.078681611 0.077674352 0.030645594
-0.071211904 0.072835997 0.035146877
0.041432597 0.078062825 0.030330731
-0.085715167 0.090281725 0.026965709
-0.081471838 0.089763112 0.032802429
0.040974364 0.090130448 0.029929658
-0.085562333 0.10062368 0.0263866
-0.08040791 0.10268846 0.031849839
0.033706907 0.104111 0.033502504
0.038644377 0.10128711 0.028368223
-0.089224279 0.11457334 0.029753538
-0.081597984 0.10965055 0.031574149
-0.051792238 0.11598322 0.034077879
-0.042090081 0.11596561 0.03272216
-0.030187126 0.11645146 0.032438621
-0.020516502 0.1184312 0.034365237
0.0115015 0.119616 0.0358941
0.020190185 0.11753049 0.034421872
0.030005097 0.11396752 0.029828347
0.036818225 0.10906266 0.025303844
-0.092569746 0.12557991 0.029764513
-0.050719459 0.12678479 0.03232472
-0.043523688 0.12375695 0.026723988
-0.030418018 0.12154989 0.026607197
-0.017328782 0.12348577 0.029174801
-0.0057673552 0.12601605 0.030404316
0.0063516032 0.12603927 0.030463792
0.017462853 0.1237459 0.029267546
0.025600558 0.12128712 0.02607657
-0.089837722 0.13794042 0.029676588
-0.06102049 0.13891508 0.035084948
-0.054433856 0.13779008 0.030100707
-0.08797995 0.14797485 0.028864469
-0.077924013 0.15314278 0.030184504
-0.065543845 0.15408669 0.030484153
-0.056538876 0.1500442 0.029204447
-0.069075182 0.1560612 0.02459386
-0.06276872 0.034891859 0.039818674
-0.054250963 0.034755077 0.041657623
-0.042228721 0.03487863 0.040648211
-0.03123226 0.034778882 0.043491028
-0.017690351 0.034785271 0.045793369
-0.005406389 0.03483925 0.044251069
0.0060521397 0.034870267 0.041663416
0.015227585 0.035152804 0.039607693
-0.063088201 0.040582567 0.040510882
-0.05411059 0.042283043 0.044440102
-0.041506328 0.042030118 0.042768244
-0.032699153 0.043309573 0.044106394
-0.017661842 0.039493825 0.038332425
-0.004523234 0.042247131 0.045322772
0.0062169307 0.041448422 0.045777094
0.018502219 0.04205412 0.042224545
0.025804438 0.044722073 0.037743621
-0.052075934 0.049670674 0.037429269
-0.042192526 0.054179139 0.039036594
-0.029565955 0.053759985 0.039630312
-0.020855306 0.0541691 0.04560383
0.0114179 0.048970401 0.047894001
0.01991877 0.052655756 0.044906612
0.028824674 0.055078357 0.039750788
-0.062894337 0.07056836 0.037238605
-0.053240065 0.068807043 0.038110424
-0.042474668 0.066056214 0.040650219
-0.029370308 0.066044994 0.040365472
-0.022591146 0.064317316 0.045635916
0.02247007 0.065166771 0.046781506
0.030078908 0.06599059 0.04168367
0.0367973 0.066769801 0.036618076
-0.074189 0.080713756 0.037722152
-0.066131264 0.077821694 0.040555872
-0.054033738 0.077809565 0.043093435
-0.041997518 0.078306109 0.042752955
-0.030059287 0.077516258 0.043313142
0.03037194 0.078143694 0.043174647
0.036797468 0.077729724 0.037269641
-0.075563937 0.090041772 0.038871765
-0.066261716 0.090313487 0.043444
-0.054124624 0.090243593 0.044767547
-0.041938037 0.090242788 0.043298598
-0.03036179 0.090355843 0.044631619
-0.022685885 0.095460661 0.046349872
0.021161454 0.09338063 0.047486857
0.030186931 0.090296537 0.042984661
0.036727525 0.088789359 0.037221465
-0.074482821 0.1014519 0.037620064
-0.066206686 0.10202422 0.04059647
-0.053860396 0.10203076 0.041862059
-0.042049136 0.10212037 0.041170385
-0.029921124 0.10171886 0.042393327
-0.018019846 0.10229708 0.043844011
-0.00538436 0.10320034 0.044597313
0.0058519589 0.1035943 0.044432413
0.018629199 0.10212921 0.044657309
0.028732244 0.10118175 0.03962848
-0.088917173 0.11491434 0.041889805
-0.078477196 0.11077236 0.042773955
-0.065426633 0.112988 0.041068073
-0.055568673 0.11324866 0.037729111
-0.042117458 0.1097655 0.037680246
-0.029609282 0.11008342 0.037831694
-0.017433884 0.11308991 0.039317958
-0.005991762 0.11416723 0.040800855
0.0061718542 0.11394549 0.039776124
0.017102864 0.11241269 0.038118087
0.02599485 0.1096015 0.0371239
-0.090581886 0.12551148 0.042264137
-0.063256077 0.1268943 0.043968696
-0.0566862 0.12559499 0.038761418
-0.0054926942 0.12103954 0.03660607
0.0035996379 0.12107971 0.036301672
-0.087603562 0.13726246 0.041052915
-0.079294942 0.14109758 0.045847457
-0.065898493 0.13842061 0.042029936
-0.058903102 0.13333102 0.0369098
-0.085139483 0.14539534 0.037586521
-0.077632733 0.14738002 0.040425804
-0.066824712 0.14809491 0.039197743
-0.059929635 0.14682066 0.036263634
-0.02812277 0.035216611 0.050475415
-0.018757962 0.035153911 0.050427064
-0.0092546726 0.035440713 0.048653964
-0.029181946 0.041038424 0.051533628
-0.018096929 0.042023718 0.051978275
-0.007643593 0.041497186 0.049023516
0.0048290812 0.046923596 0.049180388
-0.025482433 0.048665732 0.048948467
-0.016115064 0.055004589 0.050307125
-0.0060566901 0.054057125 0.052935574
0.0062593184 0.054060984 0.052549705
0.015466843 0.0560936 0.049341254
-0.017246187 0.066178694 0.052481081
-0.0060504363 0.066145815 0.0561889
0.0063869026 0.065972798 0.05530474
0.01691677 0.066198677 0.050641231
-0.025749376 0.080218159 0.050921224
-0.018720433 0.077805273 0.055258084
-0.0059996159 0.078071021 0.057856616
0.006295491 0.078131258 0.056038257
0.018201273 0.078135483 0.051830012
0.024572579 0.080239363 0.048611559
-0.025627902 0.087744966 0.050441671
-0.018197894 0.09009289 0.054550517
-0.0059969402 0.089780889 0.056444112
0.0062114107 0.089644924 0.054969314
0.017220493 0.089136519 0.050332025
-0.014624768 0.097215153 0.050489016
-0.0055265636 0.098238602 0.0513869
0.0051520583 0.097937033 0.050219081
0.013473443 0.09706682 0.04858597
-0.085358247 0.118151 0.048544925
-0.077151 0.11634812 0.050416686
-0.068772592 0.11616594 0.050619703
-0.085481189 0.12585029 0.049042273
-0.078084007 0.1261283 0.052112624
-0.06831833 0.1249306 0.051057484
-0.084860235 0.13303865 0.048491601
-0.077562094 0.13575593 0.049996451
-0.070811324 0.13442808 0.049062397
