# .PCD v0.7 - Point Cloud Data file format
VERSION 0.7
FIELDS x y z
SIZE 4 4 4
TYPE F F F
COUNT 1 1 1
WIDTH 822
HEIGHT 1
VIEWPOINT 0 0 0 1 0 0 0
POINTS 822
DATA ascii
2.3283997 0.078848496 -0.060572557
2.3349841 0.076285914 -0.061024439
2.3276119 0.080852032 -0.060388803
2.3312755 0.080801994 -0.060978744
2.320399 0.069713369 -0.0501047
2.3365269 0.066965103 -0.053994134
2.341857 0.065714285 -0.05355696
2.3195162 0.072536074 -0.051314786
2.3249168 0.076089859 -0.054370794
2.3350289 0.074852899 -0.05566559
2.340591 0.071060099 -0.055235371
2.3267269 0.080857962 -0.057343788
2.3311086 0.080779843 -0.058145985
2.3396456 0.059392452 -0.043409467
2.342746 0.057780065 -0.04426254
2.3199122 0.069336385 -0.048558749
2.3242254 0.067498147 -0.044632629
2.3352697 0.064207986 -0.045550462
2.3435595 0.065064326 -0.045220055
2.319767 0.071436636 -0.04861616
2.3252852 0.074098438 -0.0452733
2.3351738 0.074347705 -0.045089819
2.3408797 0.070911661 -0.04423641
2.4491975 -0.00072678737 -0.030575732
2.4507451 -0.0014762618 -0.03041935
2.4489987 0.0044136113 -0.03024916
2.4518852 0.0034785005 -0.030488359
2.428761 0.02933223 -0.031311441
2.4358156 0.027690858 -0.032360125
2.4451108 0.026287882 -0.032914396
2.4543293 0.026346244 -0.031609703
2.4608717 0.029025033 -0.030411851
2.4188943 0.037964407 -0.031827658
2.4249375 0.03498983 -0.034811914
2.4348567 0.034923214 -0.037510864
2.4450138 0.035091761 -0.036494069
2.4549956 0.034988083 -0.033494208
2.4628584 0.035179198 -0.030715952
2.4177239 0.044750169 -0.033158571
2.4247823 0.044984259 -0.037935223
2.4350245 0.045048457 -0.038614169
2.4449568 0.04501811 -0.036414243
2.4548702 0.045021631 -0.033904787
2.4636297 0.044803593 -0.03087895
2.3387396 0.058361884 -0.034573968
2.3440077 0.055814225 -0.035167843
2.4184835 0.051877048 -0.032072268
2.4249713 0.054984156 -0.035411004
2.4349089 0.055012885 -0.037458874
2.4449625 0.054979503 -0.03578971
2.4550385 0.054986306 -0.033028781
2.461993 0.054890059 -0.030834664
2.3257279 0.064752392 -0.035069037
2.3342333 0.061832361 -0.036146689
2.3455651 0.065295175 -0.034968123
2.4273057 0.062648267 -0.032218348
2.4350698 0.06497895 -0.03357118
2.4449916 0.0649781 -0.03295118
2.4538915 0.063575588 -0.031264607
2.4615111 0.060795553 -0.030307401
2.3276303 0.071416318 -0.036027685
2.3348038 0.072582699 -0.03499772
2.3413107 0.070902422 -0.03509267
2.4377191 0.070955366 -0.030765498
2.4446917 0.071251303 -0.030685142
2.439698 -0.0013595119 -0.021109959
2.4449518 -0.00443879 -0.024570676
2.4512424 -0.0012362723 -0.024964858
2.4393775 0.0027962145 -0.0212292
2.4440889 0.005261377 -0.026710385
2.4555044 0.005063389 -0.025884755
2.4611509 0.0089061111 -0.023588607
2.3982103 0.018326998 -0.020643367
2.402988 0.017995169 -0.020901335
2.439163 0.019086758 -0.021396449
2.4450743 0.015287823 -0.025099779
2.4550014 0.01487402 -0.028318346
2.4647 0.015211499 -0.024904246
2.4707828 0.018972749 -0.022658648
2.3896599 0.027761085 -0.02010935
2.3956325 0.025555439 -0.021494491
2.4048898 0.025082393 -0.021456879
2.4119542 0.028148601 -0.020595809
2.4257393 0.02788743 -0.024322489
2.4346437 0.023543769 -0.025086945
2.4439549 0.021257026 -0.028480416
2.4562716 0.021938091 -0.028761679
2.4652817 0.02465968 -0.026475869
2.4739728 0.025272323 -0.023600688
2.4807687 0.029245254 -0.020787274
2.3896527 0.034138236 -0.02035806
2.3950951 0.034977093 -0.021626966
2.4051013 0.0350339 -0.022467978
2.4154704 0.034935813 -0.024568999
2.4215655 0.031304143 -0.026863318
2.4676826 0.034720767 -0.028321369
2.4751368 0.034880549 -0.024562722
2.4822524 0.03539582 -0.022012135
2.3967309 0.044322368 -0.020666396
2.4049873 0.045016166 -0.02243931
2.4136541 0.044932917 -0.025969166
2.4681261 0.045360487 -0.029612033
2.4750063 0.044958603 -0.026285008
2.4818861 0.044217519 -0.021997573
2.3297374 0.059518509 -0.0259433
2.336036 0.05735939 -0.02511959
2.3454075 0.054618139 -0.025721854
2.3502192 0.05847872 -0.021748981
2.3991463 0.050961092 -0.020199133
2.4058857 0.054793458 -0.02207835
2.4151111 0.055045731 -0.025104925
2.4209485 0.059087183 -0.027803259
2.4669478 0.055077109 -0.02891288
2.4750295 0.055172678 -0.025797904
2.4813385 0.053943023 -0.021418717
2.3283639 0.064157598 -0.025959605
2.3335114 0.068250746 -0.022576705
2.3464026 0.065491892 -0.024885066
2.4082251 0.062235396 -0.02116097
2.415149 0.064955741 -0.022387309
2.4246998 0.065730333 -0.025714526
2.4315591 0.069120824 -0.028562976
2.4567862 0.067339621 -0.028849315
2.4651058 0.065202758 -0.0270989
2.473392 0.063733779 -0.022743208
2.3295417 0.070268303 -0.0287528
2.3355525 0.070894897 -0.026588364
2.3411264 0.070468307 -0.027504131
2.4173512 0.073124543 -0.021539509
2.4250858 0.074881464 -0.021733221
2.4348438 0.074575312 -0.024477642
2.4449482 0.07616099 -0.026499862
2.4551301 0.075165763 -0.025977036
2.4645157 0.074574575 -0.022873012
2.4709766 0.071114771 -0.0210333
2.4260743 0.081326462 -0.020213192
2.4366329 0.082224473 -0.021217089
2.4451602 0.083743379 -0.022009926
2.4547431 0.082952634 -0.021687955
2.4611514 0.08109954 -0.020445867
2.3585966 0.1081989 -0.020545484
2.3646939 0.10761258 -0.021506369
2.3724859 0.1088961 -0.021440001
2.357527 0.11614902 -0.022518106
2.3651757 0.11631639 -0.025444409
2.3723531 0.11366509 -0.024263287
2.3577788 0.12059717 -0.023588104
2.3627284 0.12068752 -0.02770449
2.4360425 -0.01332959 -0.011294302
2.4413559 -0.011019615 -0.011925233
2.4373784 -0.0047519146 -0.013030413
2.4448507 -0.0060367864 -0.015456456
2.4504941 -0.0011168743 -0.0189602
2.3793173 0.0096483305 -0.01112335
2.3857484 0.0067439117 -0.013003158
2.3948326 0.0055677528 -0.014640911
2.4044998 0.0062379562 -0.014468437
2.4143491 0.008179632 -0.011630184
2.4253342 0.0075488291 -0.011237308
2.4363527 0.0052294675 -0.013110227
2.4463084 0.0043735909 -0.0143729
2.4535382 0.006418291 -0.016401973
2.3771636 0.015732013 -0.012242321
2.3848736 0.014845765 -0.015937496
2.3944473 0.014554638 -0.018743495
2.4056938 0.013823895 -0.018549383
2.4150205 0.014892884 -0.01543025
2.4249911 0.015015142 -0.013753236
2.4354947 0.015648551 -0.012820687
2.44136 0.014057474 -0.01575725
2.4578485 0.012125917 -0.014881349
2.4640162 0.016159071 -0.016408559
2.4710169 0.019284364 -0.018934699
2.3758612 0.025150113 -0.012771546
2.3849621 0.024911724 -0.017633373
2.3916748 0.022327777 -0.01927772
2.4096589 0.021383366 -0.019453749
2.4156344 0.024189761 -0.018792989
2.4247761 0.023679925 -0.017206581
2.4328396 0.021383157 -0.017140388
2.4676862 0.022294406 -0.013376974
2.4746525 0.025852984 -0.015462272
2.4808457 0.029240079 -0.016745001
2.3757463 0.035172615 -0.013275413
2.3846018 0.035027634 -0.018229755
2.3900611 0.039395109 -0.019561199
2.4193335 0.030101396 -0.0195335
2.4777641 0.031052753 -0.011640565
2.4849379 0.034666657 -0.014671186
2.3769972 0.044547468 -0.012507766
2.3849533 0.044912215 -0.016714877
2.3924835 0.046417505 -0.0189771
2.4852924 0.04463027 -0.01544936
2.3352609 0.056244615 -0.015383577
2.3446741 0.051784668 -0.015136712
2.3514936 0.056609515 -0.014218796
2.378859 0.052064769 -0.01106158
2.3855369 0.05477336 -0.01296201
2.3948903 0.055288151 -0.016669674
2.4015388 0.056843821 -0.018765418
2.4795804 0.059478778 -0.019759901
2.4846134 0.055628736 -0.01549791
2.3298254 0.06257534 -0.019876899
2.3347929 0.065550447 -0.015360872
2.3451841 0.065478966 -0.015167228
2.3505068 0.060816411 -0.015183663
2.3965642 0.063465141 -0.012590866
2.4042647 0.065765709 -0.016779544
2.4114707 0.068868995 -0.019212866
2.4778321 0.066395693 -0.018150574
2.4825501 0.064478256 -0.013826823
2.4063468 0.074230485 -0.013551127
2.4138026 0.076081716 -0.017466055
2.4207361 0.079034634 -0.019819366
2.4678323 0.078193322 -0.018812107
2.4747806 0.07501103 -0.015176547
2.481179 0.072364062 -0.011328655
2.3564391 0.086534753 -0.011645135
2.3634193 0.086839214 -0.01157315
2.4086745 0.081807248 -0.011217581
2.4155769 0.084567785 -0.014164519
2.424767 0.086249329 -0.01811832
2.4344022 0.086677715 -0.018388508
2.4446256 0.088637479 -0.018820062
2.4555604 0.088032432 -0.018069934
2.4652541 0.085576385 -0.016239395
2.4715514 0.082584813 -0.012140484
2.3550849 0.095112443 -0.01397133
2.365279 0.094923779 -0.014668126
2.3716297 0.097204797 -0.011993378
2.4181697 0.091613509 -0.011468942
2.4253023 0.093667135 -0.013223018
2.4349561 0.094804987 -0.013588512
2.4449022 0.094792224 -0.014103048
2.4544992 0.093516879 -0.013235411
2.4629292 0.091489717 -0.012054022
2.355417 0.10532796 -0.014893935
2.3649654 0.10452443 -0.01517446
2.3737781 0.10545363 -0.014827747
2.3553441 0.11449641 -0.01551239
2.3642948 0.11250961 -0.018120985
2.3730032 0.1114432 -0.018204676
2.3555551 0.12005669 -0.0197584
2.426595 -0.023252966 -0.0036118419
2.4314899 -0.021054056 -0.0047048531
2.425868 -0.015340862 -0.0051580882
2.4350145 -0.015895652 -0.0060781045
2.4412041 -0.011384708 -0.0049959626
2.3799345 -0.00054673478 -0.00051537401
2.3858759 -0.0015185768 -0.0028676994
2.3944321 -0.0022874183 -0.0047437507
2.4052069 -0.0019490486 -0.0031345733
2.4118245 -0.0010597735 -0.0017395887
2.4256952 -0.0041385959 -0.0042414931
2.4315991 -0.00499652 -0.0089242002
2.4449563 -0.007112734 -0.0051153908
2.375566 0.0056831059 -0.0040263883
2.3837969 0.0026170439 -0.0074535767
2.3934839 0.00091525581 -0.009314348
2.4059985 0.0012594801 -0.0075756502
2.4157474 0.0031096954 -0.0052297818
2.4240291 0.0024676563 -0.0076615759
2.4313927 0.0016781939 -0.0094649419
2.4483423 0.0026082073 -0.0056504328
2.452806 0.0070679002 -0.0047826241
2.3678975 0.015558796 -0.0029048624
2.3725393 0.014157194 -0.0074231094
2.4577975 0.012205711 -0.0052319225
2.4626904 0.017387008 -0.0047195419
2.348947 0.028391607 -0.0013726143
2.3552654 0.026250819 -0.0030305453
2.3653991 0.024916224 -0.0050053513
2.3709481 0.024090366 -0.0091905808
2.4675612 0.022582958 -0.0053253849
2.4733827 0.027762515 -0.0046652383
2.4805655 0.029156767 -0.00097507419
2.3472476 0.035591282 -0.0024419182
2.3549786 0.034963742 -0.0065821209
2.3650503 0.034974616 -0.0083838739
2.3708708 0.035922159 -0.0094319368
2.477051 0.03113414 -0.0072890441
2.4854724 0.03464653 -0.0053083105
2.4904993 0.039802261 -0.00133145
2.3392713 0.048224304 -0.0015110729
2.3451278 0.045558181 -0.004998758
2.3551009 0.044968154 -0.0079488978
2.3649819 0.045042422 -0.0084230229
2.3723967 0.0460063 -0.0084288511
2.4881003 0.044502448 -0.0063278936
2.49228 0.047118805 -0.0024141455
2.3369207 0.055130478 -0.005186494
2.3420694 0.05088314 -0.0084704207
2.3555837 0.055384103 -0.0067190221
2.3649902 0.055442251 -0.0046750931
2.3752258 0.055307716 -0.0050006737
2.3820384 0.058764495 -0.0082502561
2.4878666 0.054902975 -0.0074667716
2.4946373 0.055176828 -0.00354239
2.3375361 0.062497556 -0.0060851448
2.3449223 0.063030273 -0.0049132183
2.354413 0.064151071 -0.0026912808
2.3618605 0.064288735 -0.0011899521
2.3795767 0.06054369 -0.00057063292
2.385488 0.062511578 -0.0044097635
2.3935485 0.066356711 -0.0061534164
2.486912 0.065660767 -0.0071096029
2.4948704 0.065130174 -0.0053310338
2.5005801 0.067056127 -0.0011408593
2.3488107 0.076428175 -0.00215408
2.3549931 0.074829586 -0.0052268612
2.3635874 0.075713895 -0.0041564521
2.3978784 0.073478505 -0.0040014125
2.402168 0.076263167 -0.0072608558
2.4788492 0.078733578 -0.0085933981
2.4846873 0.075204208 -0.0044886703
2.4950433 0.075111337 -0.0040703793
2.5006061 0.072672896 -0.00094134884
2.3482649 0.085250176 -0.0039732135
2.3536267 0.084079608 -0.007558825
2.3669279 0.084641606 -0.0056021437
2.3703027 0.089329377 -0.0042581572
2.40556 0.084911138 -0.0050938665
2.4117303 0.088266976 -0.0082818102
2.4693942 0.089342095 -0.0090300981
2.4750476 0.085052922 -0.0052624489
2.4857218 0.081191696 -0.0012763564
2.4936225 0.081791714 -0.0015597428
2.3490777 0.093841061 -0.0053961691
2.3552406 0.095881149 -0.003582143
2.3649154 0.095292881 -0.0047114338
2.3719759 0.095063649 -0.0056428607
2.4090452 0.09107855 -0.0023310487
2.4153905 0.094815478 -0.0049991393
2.4240673 0.098176308 -0.0071023791
2.4349377 0.099384211 -0.0091780061
2.4461889 0.099596985 -0.0093624489
2.4561069 0.098266214 -0.006945882
2.4649782 0.094676621 -0.0052633081
2.4709759 0.091245882 -0.0027113026
2.3540978 0.10418376 -0.0070250146
2.3656516 0.10074614 -0.0092637362
2.3732126 0.101927 -0.0081122946
2.4187517 0.10010773 -0.000223601
2.4260607 0.10148704 -0.0025453137
2.4350641 0.10244152 -0.0042727613
2.4447496 0.10238492 -0.0045627211
2.4537332 0.10095028 -0.002865264
2.3542569 0.11067775 -0.0094623603
2.4247787 -0.02419558 0.0051573212
2.4312067 -0.021347966 0.005138671
2.4217896 -0.015510512 0.0052798786
2.4363501 -0.016178327 0.0052454518
2.4411802 -0.011310908 0.0039269212
2.3773568 -0.001034016 0.0057457169
2.3845944 -0.0036125642 0.0050072339
2.3950839 -0.0054054395 0.0052688783
2.4047477 -0.0049757231 0.0050701443
2.4145422 -0.0016124848 0.0053616916
2.4232154 -0.0041116383 0.0053842789
2.4458015 -0.0059438325 0.0056378758
2.4510355 -0.0012848837 0.0068710656
2.3681965 0.007549277 0.0058788895
2.373136 0.0031721385 0.0043315222
2.4179204 0.00037190292 0.0038968369
2.4210382 0.00050063245 0.0091155246
2.45368 0.0073001408 0.004541181
2.349802 0.019541606 0.0092858505
2.3552437 0.018187005 0.0065898118
2.3644602 0.014573695 0.0045918389
2.4580512 0.012171922 0.0050691715
2.4626801 0.017000446 0.0050390037
2.3463764 0.026019471 0.005482506
2.3531783 0.021848585 0.0024883875
2.3619452 0.020596907 0.00077775423
2.4675968 0.022171447 0.0047369865
2.475096 0.026073292 0.0052927122
2.4807439 0.029211553 0.0032620016
2.3391092 0.038330395 0.0073225433
2.3422372 0.034131631 0.0040842453
2.4798865 0.031260971 0.0058023599
2.4860044 0.035319783 0.0030408588
2.49037 0.039463658 0.0043473123
2.3357604 0.045142546 0.0052896421
2.3409932 0.042106293 0.0011891688
2.4893656 0.040188413 0.0087849004
2.4942706 0.044215087 0.0054742615
2.3368411 0.055530045 0.004944473
2.3698363 0.059550203 0.00025894301
2.3746083 0.059190314 0.0018866993
2.4989221 0.052931324 0.0039625834
2.5010171 0.056829676 0.005965428
2.3396797 0.060155481 0.0046114963
2.3448055 0.064106874 0.0046170875
2.3653505 0.064634524 0.004489711
2.3753524 0.060810868 0.0060292445
2.3849754 0.064817481 0.0050175316
2.3915219 0.068472371 0.0040813764
2.5028245 0.065335833 0.0050014071
2.347852 0.074584939 0.0041011716
2.3550973 0.077011205 0.008459094
2.3635519 0.074907385 0.0051655727
2.3957353 0.074994601 0.0049085547
2.4837081 0.07940609 0.000864139
2.4996688 0.078628555 0.00052938197
2.5028114 0.075499378 0.0046980837
2.3487349 0.084279627 0.0022502923
2.3548911 0.084838428 0.004195998
2.3643701 0.084697656 0.0029169521
2.3991714 0.081337005 0.0063707097
2.4027078 0.086195283 0.0045535564
2.4773729 0.087405972 0.0043996889
2.484967 0.085221678 0.0043901983
2.4956028 0.086240947 0.0040853987
2.5011084 0.082285903 0.0069218092
2.3533757 0.092364572 0.0012795287
2.3666782 0.091562569 0.0010350349
2.4077661 0.092866763 0.0048922016
2.4131036 0.097737715 0.0041493988
2.4659824 0.097388461 0.0043677799
2.472261 0.092255555 0.0049540959
2.4886446 0.090412885 0.0082277162
2.4918268 0.090591729 0.0078199999
2.4179134 0.10105563 0.005564712
2.4249971 0.10347061 0.0048064925
2.4350569 0.105308 0.0050314516
2.4450204 0.10501184 0.0050241747
2.4550483 0.10270143 0.0046395236
2.4613814 0.10039371 0.0059397817
2.4268503 -0.022310982 0.012921409
2.4310834 -0.02077624 0.014149192
2.4266315 -0.015368753 0.014928772
2.4350512 -0.016881954 0.015418696
2.3769569 -0.0011911797 0.014877953
2.3849242 -0.0043128487 0.015421551
2.394809 -0.0059506455 0.015122678
2.4050705 -0.0055307862 0.015044698
2.4140849 -0.0022675169 0.015034077
2.427629 -0.0041149305 0.013666744
2.4306538 -0.0051515028 0.018372325
2.4487236 -0.0011294852 0.012913466
2.4512072 -0.00056519493 0.01415154
2.3669419 0.0069477274 0.014901627
2.3714871 0.0019540621 0.014939295
2.4185932 0.00040338337 0.015500252
2.4250782 0.001743815 0.015288307
2.449369 0.00012727827 0.0155029
2.4542155 0.0049620653 0.015391505
2.348398 0.018732687 0.015697852
2.3544664 0.016310651 0.014951965
2.3628829 0.013918987 0.014861001
2.4580059 0.011891847 0.015039928
2.4627981 0.01692277 0.014911341
2.3436623 0.024717923 0.014742696
2.4679308 0.022233298 0.015002852
2.4750972 0.025607334 0.01520671
2.4803553 0.028650606 0.016593367
2.3358972 0.036384083 0.015019034
2.3405869 0.031483322 0.013390763
2.4833326 0.033023424 0.018574299
2.3296347 0.043244474 0.016787019
2.3311031 0.044749767 0.014036875
2.4895663 0.040795855 0.016421
2.4946649 0.044603817 0.015238277
2.335499 0.055481181 0.014905935
2.3785093 0.059369951 0.018694073
2.3807054 0.05947613 0.019156501
2.4990551 0.05184174 0.016316775
2.5011063 0.05662315 0.014986768
2.3395176 0.060500395 0.015939938
2.3449297 0.065502279 0.014979818
2.3565016 0.068813816 0.016904823
2.3648725 0.064552441 0.014744858
2.3745337 0.061156161 0.014386484
2.3849716 0.06450098 0.01500054
2.3913565 0.068510823 0.015614062
2.5036521 0.065035418 0.015014028
2.3495488 0.070740372 0.0105108
2.3545017 0.071583822 0.01309975
2.3606668 0.070648588 0.010307951
2.3952396 0.074909307 0.014992848
2.5042257 0.075661026 0.014542077
2.3989668 0.081737101 0.014834657
2.4023235 0.086734481 0.01516076
2.4773846 0.088106483 0.014545387
2.4834356 0.087078311 0.015362068
2.4977386 0.087959513 0.014750809
2.5016773 0.082858995 0.014672439
2.4073045 0.0930916 0.014908407
2.4124358 0.098160483 0.015033852
2.4659221 0.097427443 0.014817805
2.4723988 0.092338361 0.014669329
2.4880755 0.090840213 0.014582256
2.4925792 0.091075353 0.014864864
2.4174335 0.1012208 0.015063303
2.4248223 0.10401864 0.015001114
2.4349902 0.10579667 0.015031101
2.4452274 0.10520962 0.015021554
2.4552052 0.10272997 0.014613597
2.4612184 0.10039207 0.013853407
2.4287596 -0.020996526 0.026708392
2.4306912 -0.020510158 0.026447428
2.4267843 -0.014418633 0.025803581
2.4352927 -0.016230229 0.024969511
2.440773 -0.011131346 0.027517971
2.3780103 -0.00061878935 0.022229301
2.3851309 -0.0023275802 0.024919596
2.3950882 -0.0036997232 0.02519881
2.4050138 -0.0027450351 0.024794051
2.4122667 -0.001115827 0.022493942
2.4277458 -0.0038550512 0.025313916
2.4303391 -0.0058380561 0.021080982
2.4464223 -0.005140767 0.027476477
2.4509122 -0.00062664814 0.024767822
2.3682845 0.0074407947 0.023139484
2.3739393 0.0036590556 0.025803333
2.3806422 0.00086307805 0.028932501
2.408787 0.00042563057 0.029243233
2.4153733 0.0023248822 0.02599776
2.4236698 0.0025990275 0.025213182
2.4535358 0.0057760598 0.025461692
2.3484075 0.018902551 0.023451693
2.3553152 0.01762807 0.024680294
2.3651934 0.015251887 0.025543371
2.3702376 0.011585133 0.029650349
2.4580498 0.012154582 0.024765808
2.4627292 0.017086003 0.024897603
2.3439345 0.024443362 0.024959274
2.4676826 0.022276469 0.025181906
2.4743271 0.027513061 0.024087552
2.4805927 0.029459611 0.021820951
2.3354042 0.03647244 0.02446761
2.3408751 0.031753495 0.025371209
2.4774868 0.031338159 0.027777994
2.4851992 0.034585893 0.025168356
2.4903069 0.039648999 0.02256975
2.3298235 0.043195266 0.020612326
2.3316782 0.044652861 0.025365049
2.4898658 0.040640324 0.0289947
2.4928091 0.045296669 0.024751659
2.3360255 0.055175319 0.024916107
2.3400755 0.059417263 0.028574301
2.3670712 0.059234977 0.028439611
2.3756669 0.057319727 0.026076857
2.3832605 0.055985738 0.026425146
2.4961252 0.054330993 0.026115647
2.5003901 0.05844339 0.021915
2.3396256 0.060470838 0.02316368
2.3450027 0.064840958 0.025007347
2.3551943 0.067525737 0.025158791
2.3642895 0.061886426 0.024327995
2.3722031 0.060607363 0.021612234
2.3868988 0.062421534 0.023552531
2.3935146 0.065470248 0.025784053
2.4986484 0.063850746 0.028213687
2.5017574 0.065667167 0.023481971
2.3977058 0.074241735 0.024392525
2.4008734 0.077518769 0.02841991
2.4796777 0.07926175 0.029372949
2.4845133 0.076792948 0.028269408
2.4972777 0.076252148 0.028482817
2.5020583 0.0748946 0.023337156
2.3994346 0.080837205 0.021566525
2.4039235 0.085721903 0.025373206
2.4699757 0.089613833 0.029329199
2.4760027 0.086188443 0.025319336
2.4856739 0.084135018 0.024235729
2.4946914 0.084918506 0.024716321
2.5009429 0.081686385 0.02148255
2.4082031 0.092003658 0.023808634
2.4143229 0.096648276 0.025597896
2.422425 0.099476553 0.028885756
2.4571617 0.098809876 0.027539939
2.4651434 0.095569126 0.024868147
2.4717834 0.09135218 0.023363065
2.4890747 0.090160213 0.0201554
2.4906015 0.090100534 0.02052455
2.4184043 0.10071567 0.022295488
2.4253623 0.10248481 0.024612473
2.4348562 0.10428204 0.025083289
2.4450722 0.10366028 0.025236504
2.4539044 0.10167754 0.023876164
2.4279752 -0.021378627 0.034918424
2.430728 -0.020511702 0.034582194
2.4246354 -0.015412054 0.035169128
2.4357288 -0.015582534 0.035190035
2.4405825 -0.01058431 0.034705587
2.3874061 -0.00062513194 0.031127578
2.3953719 -0.0010539347 0.031631816
2.4023991 -0.00077552535 0.030848479
2.426702 -0.0046102698 0.035462774
2.431004 -0.0010056105 0.039125279
2.4455903 -0.0056181056 0.03495856
2.4505637 -0.0006034798 0.035505351
2.3771052 0.0071059517 0.032449
2.3846371 0.0045385128 0.035555314
2.394948 0.0031485735 0.036712844
2.4053605 0.0039221803 0.035624605
2.4143262 0.0065356144 0.033808272
2.4255333 0.0055004591 0.034983125
2.4339807 0.0058590309 0.039160874
2.4406939 0.0090586031 0.039453626
2.4527767 0.0060919449 0.033984967
2.3492897 0.01924702 0.034789328
2.3545253 0.017313201 0.035068031
2.36448 0.018417612 0.033873685
2.3748231 0.014970399 0.03526964
2.381171 0.011840141 0.039063193
2.4089859 0.010534516 0.0399395
2.4157968 0.012576654 0.038249489
2.4232676 0.011855481 0.038554724
2.4358745 0.014804633 0.038501255
2.4418275 0.01606763 0.037885223
2.4576137 0.012596289 0.034913272
2.4623585 0.017569548 0.03486
2.3452513 0.024881696 0.034808446
2.3671126 0.021014148 0.035570581
2.3747909 0.024830144 0.038084641
2.4289899 0.027875807 0.0396665
2.4348271 0.024084179 0.0384738
2.4414644 0.021382997 0.038551599
2.4673126 0.022657642 0.034053743
2.473736 0.027426317 0.034610584
2.4805689 0.029566288 0.038603265
2.3377235 0.036442619 0.034685962
2.3411686 0.031970169 0.034887973
2.376838 0.03500187 0.037707325
2.3833928 0.036870658 0.038645033
2.3903158 0.039683472 0.039692201
2.4771261 0.032243896 0.032112941
2.4854321 0.035115965 0.03484429
2.336086 0.045053825 0.035172593
2.3652017 0.049365114 0.039466415
2.3762608 0.045748923 0.037027609
2.3846636 0.045208491 0.03510261
2.3944566 0.047129147 0.038436294
2.4006271 0.048686355 0.039607599
2.4882891 0.045546662 0.036320984
2.4904842 0.04728381 0.031217214
2.3380826 0.053335577 0.033727333
2.3434262 0.057071611 0.036602639
2.3561337 0.056262329 0.036617529
2.3650098 0.05461514 0.034676634
2.3741791 0.053191684 0.033382256
2.3871162 0.053162325 0.031789325
2.3949647 0.055059846 0.034698948
2.4020691 0.055990808 0.038536452
2.4859772 0.055052426 0.03601018
2.4923871 0.057045966 0.030642796
2.346884 0.062823318 0.033711661
2.3539853 0.063486554 0.033305433
2.3974354 0.063868433 0.031894293
2.4038098 0.065428697 0.037095763
2.479125 0.068657979 0.039555825
2.4850471 0.065248661 0.034755796
2.4940422 0.065203793 0.031795342
2.3995876 0.071425989 0.030752299
2.4050233 0.074741147 0.035101943
2.4116151 0.077571586 0.038997985
2.4693372 0.079887643 0.039824702
2.476078 0.075949341 0.036636118
2.4841504 0.072881013 0.032378182
2.4932125 0.074155681 0.031224916
2.407304 0.083464071 0.032652311
2.4144435 0.085497476 0.036533151
2.4251738 0.087535344 0.038792599
2.432071 0.088435605 0.039524786
2.4597445 0.089288212 0.039713301
2.4664404 0.08633098 0.036606494
2.4731309 0.083219759 0.033156361
2.4163899 0.092832558 0.032585897
2.4248159 0.094898596 0.034476787
2.4348714 0.09519843 0.036363848
2.4449539 0.095853999 0.036282565
2.4549453 0.094684951 0.035123792
2.4630945 0.09224499 0.033188161
2.4285841 0.10054987 0.031174349
2.435204 0.10111964 0.031412482
2.4434392 0.10106844 0.031153902
2.4288902 -0.020284148 0.040703677
2.4303875 -0.020312844 0.0405057
2.4275515 -0.014445429 0.042880513
2.4344332 -0.01442163 0.044592004
2.4404743 -0.010457373 0.042562317
2.4277852 -0.0073246802 0.042524062
2.43523 -0.0050263312 0.044364128
2.4443183 -0.0042829351 0.043236885
2.4505408 -0.00035104342 0.042390201
2.3881505 0.0092102317 0.040521733
2.3951313 0.0084654111 0.04107032
2.4028831 0.0087607279 0.040763441
2.4376197 0.0027043545 0.041014198
2.4446115 0.0046197423 0.044828717
2.4546447 0.004055805 0.045815408
2.4604449 0.0096656019 0.047078602
2.3494573 0.019418776 0.041444477
2.355252 0.018270798 0.042935625
2.3617799 0.019046705 0.042022947
2.3795824 0.017532287 0.040118448
2.3852737 0.015267349 0.041920111
2.3948584 0.014896406 0.043938231
2.4049792 0.01494998 0.043000713
2.4142962 0.017022308 0.041558813
2.4253972 0.016019989 0.040998179
2.4310234 0.015832068 0.040477585
2.4452949 0.014497997 0.045166623
2.4507456 0.019555531 0.048999652
2.465827 0.015299824 0.046522651
2.4704325 0.019611713 0.044829972
2.3471336 0.025732413 0.043915063
2.3547518 0.024103614 0.047905233
2.365489 0.024069071 0.045751859
2.3730435 0.026975753 0.043163639
2.3850133 0.024994606 0.042334516
2.3949263 0.024978809 0.044658843
2.4049227 0.024941009 0.044671454
2.4150097 0.025031371 0.042653356
2.4246185 0.024690263 0.04145715
2.4370701 0.027802754 0.042358216
2.4444866 0.024846023 0.045167912
2.4549289 0.023927713 0.048436772
2.4655323 0.02540189 0.048270814
2.4741268 0.025303992 0.044992667
2.4803331 0.029381618 0.042107832
2.339318 0.038151849 0.040858369
2.3438556 0.034624122 0.045460075
2.3693104 0.039034091 0.049210601
2.3721893 0.034996554 0.045098916
2.3865469 0.033332027 0.041420035
2.395092 0.034913022 0.042866588
2.4051116 0.03499518 0.043001533
2.4151742 0.035032697 0.043134768
2.4247241 0.034724645 0.044403303
2.4339223 0.032197848 0.046306297
2.4410596 0.030635813 0.048981
2.4670601 0.032319624 0.048010841
2.4750364 0.034732491 0.045904551
2.4832897 0.035157539 0.04313447
2.3393445 0.043819819 0.040877931
2.3445544 0.045074321 0.045806229
2.3555689 0.04684158 0.04669315
2.365315 0.044709835 0.04470937
2.37169 0.043408707 0.04164727
2.3955846 0.042495627 0.04100306
2.4051833 0.04484614 0.04274632
2.4151881 0.044833958 0.045744162
2.4203775 0.040601034 0.048510268
2.4755378 0.04506034 0.046036992
2.4838331 0.044500213 0.042073634
2.3461764 0.053108912 0.042338535
2.353436 0.052374225 0.042552263
2.4066565 0.054425515 0.041738097
2.4150403 0.055223763 0.045055587
2.4207478 0.05948472 0.049199253
2.4684558 0.056338876 0.049215287
2.4751902 0.055230759 0.045964982
2.4806802 0.054810621 0.040718347
2.4084024 0.063549541 0.040800929
2.4151711 0.064885296 0.042961534
2.4237015 0.066559158 0.046131931
2.4668789 0.065630235 0.047147579
2.4747891 0.064731084 0.042930406
2.4805787 0.062327668 0.040214866
2.4157877 0.074515551 0.04183672
2.4255204 0.074477367 0.043816384
2.4341273 0.076061346 0.047189429
2.4455419 0.077942416 0.048573483
2.4551861 0.076892227 0.048575029
2.4649367 0.075002693 0.045013152
2.4721594 0.07281737 0.040857591
2.4181018 0.081545249 0.040722452
2.4248519 0.082647361 0.04110558
2.4355822 0.084586851 0.043477423
2.4450645 0.085305169 0.04527105
2.4549241 0.084960081 0.044134457
2.462914 0.08314164 0.041907437
2.4387825 0.090205051 0.0404393
2.4459505 0.090819053 0.040830757
2.4524333 0.090789065 0.0405876
2.4487443 0.0069345208 0.050923757
2.4544773 0.0065763085 0.052474476
2.4488311 0.012992072 0.050804202
2.4549088 0.015049393 0.052906144
2.4624283 0.015164705 0.051316634
2.3561044 0.029301297 0.050603937
2.364073 0.028429175 0.051164258
2.4473674 0.028579054 0.050800137
2.4552038 0.026126923 0.050735209
2.4615052 0.023044355 0.050319403
2.3485143 0.035909895 0.050871719
2.3548908 0.034996897 0.052469373
2.3650723 0.035045322 0.052462399
2.3700094 0.031622946 0.050290801
2.4266624 0.038348407 0.05220959
2.4354832 0.036592856 0.053020716
2.4451962 0.034812454 0.053541698
2.4549272 0.034971818 0.053722981
2.4641645 0.036277395 0.052523892
2.47052 0.038660184 0.050254598
2.349144 0.041267835 0.050724197
2.3543098 0.041860994 0.051061109
2.3629601 0.040993948 0.050883155
2.4192035 0.047149245 0.051244244
2.4247589 0.044692643 0.055002544
2.4350958 0.045096993 0.056743145
2.4450238 0.044936027 0.056795124
2.4549868 0.045070905 0.056185
2.4651444 0.045260962 0.053179629
2.4707475 0.044862092 0.050667007
2.4189839 0.052468978 0.051161222
2.4246328 0.054917559 0.05497852
2.4349115 0.054995131 0.057326436
2.444926 0.055041295 0.057514556
2.4550469 0.055171803 0.055584118
2.4637871 0.05444473 0.052439507
2.4269443 0.064105943 0.052809298
2.4350579 0.065110408 0.055416405
2.4452176 0.065155938 0.055734415
2.4549484 0.065138221 0.053695608
2.4620824 0.064132296 0.051162861
2.4355617 0.071749665 0.051754773
2.4450021 0.073333599 0.052306041
2.4547322 0.072252855 0.0509554
