# .PCD v0.7 - Point Cloud Data file format
VERSION 0.7
FIELDS x y z
SIZE 4 4 4
TYPE F F F
COUNT 1 1 1
WIDTH 545
HEIGHT 1
VIEWPOINT 0 0 0 1 0 0 0
POINTS 545
DATA ascii
2.340107 0.070643738 -0.06219922
2.3338785 0.074439794 -0.061842784
2.3468494 0.057481278 -0.05444029
2.3418128 0.064733878 -0.056602832
2.324856 0.064702049 -0.053022578
2.3320789 0.071028069 -0.055861916
2.3226395 0.068900868 -0.054717772
2.3250065 0.073120967 -0.057137266
2.4403145 0.0404137 -0.045532249
2.4472432 0.044718593 -0.045972686
2.450736 0.051408749 -0.043818761
2.4327464 0.044422224 -0.045265995
2.4382493 0.050215226 -0.046036173
2.4447508 0.059237812 -0.042954277
2.4448078 0.067499481 -0.039956935
2.4271884 0.048995305 -0.043909088
2.4306207 0.055744156 -0.043787904
2.4374313 0.063769251 -0.041654561
2.3462942 0.050259329 -0.044649269
2.3485248 0.054425351 -0.046676785
2.336308 0.056102689 -0.043790895
2.3425508 0.061792657 -0.046215411
2.3269649 0.060101848 -0.045787603
2.332911 0.066518381 -0.044546448
2.4607067 0.0054610595 -0.043603923
2.4664652 0.013080139 -0.042760964
2.4733629 0.022357039 -0.039273888
2.479178 0.030613821 -0.03652991
2.4562483 0.009309832 -0.042461891
2.4599805 0.018482598 -0.042289395
2.467567 0.027170246 -0.040088795
2.4750454 0.036378328 -0.03684777
2.4802864 0.0457986 -0.034003593
2.4833159 0.05456068 -0.031740565
2.4521079 0.027995532 -0.038518675
2.4575393 0.035473652 -0.04254568
2.4646635 0.044859685 -0.041134775
2.4715545 0.053908225 -0.037205547
2.4780207 0.063026771 -0.032432768
2.479316 0.07000643 -0.028530994
2.4416168 0.033746652 -0.039979458
2.4484243 0.03845574 -0.044583965
2.4562442 0.052938655 -0.042090263
2.462018 0.061318848 -0.037910704
2.4696481 0.06991528 -0.032136198
2.4718759 0.075905748 -0.027150482
2.4304199 0.038112536 -0.039482016
2.4508553 0.060522858 -0.041162681
2.452353 0.068551853 -0.037627492
2.4597239 0.076827459 -0.030623883
2.4639039 0.082111865 -0.025843911
2.4220893 0.046219721 -0.036082935
2.4250624 0.057954468 -0.038217451
2.4341021 0.068446398 -0.037744407
2.4423454 0.075495541 -0.033965241
2.449851 0.082458198 -0.027874777
2.4579489 0.085581727 -0.024470069
2.4178412 0.052811936 -0.030321958
2.4226758 0.059945967 -0.031132493
2.4289365 0.069146104 -0.031050703
2.4362743 0.077238075 -0.028130332
2.4415703 0.082636051 -0.02478957
2.3462248 0.047220323 -0.035934515
2.3520007 0.053037014 -0.034660771
2.3361731 0.051402915 -0.03505167
2.3432002 0.061886843 -0.032751292
2.3303013 0.056708232 -0.035290066
2.3341582 0.061664052 -0.033712972
2.3619173 0.10725857 -0.020391133
2.3651981 0.11065557 -0.020634839
2.3559027 0.11123983 -0.01928575
2.3594391 0.11331205 -0.020326618
2.4543221 -0.0059372783 -0.031070376
2.459542 0.0018303469 -0.035218261
2.4664893 0.012089463 -0.036033403
2.4739325 0.021884333 -0.03402571
2.4809618 0.031305067 -0.031228008
2.4877942 0.040111631 -0.027324831
2.4928958 0.047326371 -0.02443504
2.4535589 -0.0026467741 -0.029964015
2.452476 0.0059432499 -0.033446465
2.4631979 0.014176577 -0.030843673
2.4707656 0.022816734 -0.028920047
2.4778531 0.032145433 -0.025822353
2.4852598 0.043583117 -0.02887531
2.4893892 0.054589566 -0.026323494
2.4899988 0.062842354 -0.020419285
2.4471216 0.013599219 -0.027845403
2.4503131 0.02243948 -0.030706028
2.48457 0.062783226 -0.028110737
2.4853723 0.069722258 -0.021719048
2.4188092 0.0059485361 -0.028919134
2.4254818 0.012596097 -0.028172161
2.4340916 0.019627269 -0.027502809
2.4401548 0.027526453 -0.030140683
2.4770432 0.07801041 -0.021367732
2.4795041 0.083204776 -0.014054792
2.4032211 0.0031072386 -0.029341361
2.4100053 0.0084587745 -0.031525768
2.4173789 0.017665423 -0.032080613
2.4246068 0.027217757 -0.030323034
2.4297998 0.033091743 -0.031930394
2.4679854 0.085653633 -0.01997944
2.4702678 0.090494767 -0.013137812
2.3953586 0.0073937625 -0.028786894
2.4001801 0.015206452 -0.030962117
2.4075198 0.025343973 -0.032825906
2.4145525 0.034940593 -0.031879712
2.4169152 0.043585055 -0.031517744
2.4488258 0.087553665 -0.022626363
2.4574487 0.092076749 -0.018032091
2.4635158 0.095687896 -0.012276468
2.3886054 0.013043478 -0.026448376
2.3910887 0.021445781 -0.027672408
2.3977275 0.031902142 -0.029838922
2.4047372 0.04169514 -0.029102869
2.4111798 0.051743843 -0.02840919
2.4170449 0.062458869 -0.026946694
2.4247894 0.07237152 -0.025115455
2.4328215 0.080705985 -0.022302235
2.4403191 0.089526355 -0.019357305
2.4475963 0.096897483 -0.013300016
2.3850186 0.028538883 -0.023930334
2.3886557 0.038131818 -0.024193756
2.395716 0.047935408 -0.022906668
2.4030788 0.057070918 -0.021421703
2.4096711 0.067213595 -0.019973369
2.4166284 0.076744162 -0.019234685
2.4235952 0.086217418 -0.017410863
2.4310195 0.094223343 -0.01296303
2.439225 0.098652266 -0.010000026
2.3857887 0.045269199 -0.01934354
2.3887129 0.049375612 -0.018659664
2.411629 0.07972721 -0.01296873
2.4186008 0.08965309 -0.011675673
2.4225874 0.094618782 -0.0096769491
2.3533685 0.040380158 -0.020074943
2.3557594 0.043138135 -0.020093724
2.3462706 0.04340202 -0.024640497
2.3539886 0.051048838 -0.023220941
2.3367188 0.048561968 -0.024037639
2.3423409 0.056972548 -0.021902356
2.3584764 0.079060547 -0.012457693
2.3635948 0.085695364 -0.013004037
2.3697844 0.096164949 -0.011995631
2.3722029 0.10280781 -0.013362242
2.3337023 0.056274608 -0.026587641
2.3345182 0.057906326 -0.027149677
2.3535321 0.08286947 -0.011479709
2.3549628 0.092698008 -0.013110124
2.3615596 0.10135495 -0.01352352
2.3681626 0.10709125 -0.015608991
2.3501027 0.09944883 -0.0095984833
2.3528485 0.10686183 -0.012449287
2.4465258 -0.018783081 -0.025378941
2.4532683 -0.010138862 -0.025099345
2.4589617 -0.0021320917 -0.023833003
2.4897542 0.040298678 -0.014450027
2.4940732 0.046448864 -0.01446119
2.441205 -0.0148312 -0.02430361
2.4460802 -0.0047516003 -0.026576977
2.452122 0.0048339218 -0.026053859
2.4636598 0.011692403 -0.020705743
2.4705489 0.021239355 -0.018939026
2.4774027 0.031039432 -0.017251397
2.4838417 0.039022062 -0.017175438
2.4934623 0.053405046 -0.015048902
2.4956267 0.061482199 -0.010443557
2.5004137 0.070547625 -0.006770452
2.5031586 0.078341551 -0.0026463433
2.4370291 0.0020232834 -0.021808172
2.4440186 0.012049049 -0.02545738
2.4481368 0.01852086 -0.024041217
2.4899404 0.069881521 -0.012708726
2.4931176 0.07780996 -0.0080877487
2.4983242 0.085260168 -0.0036646365
2.4115992 -0.0056361929 -0.02022521
2.4201443 -0.0010261722 -0.021929502
2.4288721 0.0064197071 -0.023279231
2.4404781 0.018892188 -0.025042458
2.4839816 0.084155463 -0.0063994406
2.4921193 0.089714959 -0.0014997609
2.3955417 -0.0065217391 -0.018115059
2.4029057 -0.0038274266 -0.022985443
2.4105396 0.00056208298 -0.027519848
2.4742308 0.091670722 -0.0051345332
2.3893332 -0.0027476177 -0.018532347
2.3923378 0.0014262423 -0.023724958
2.4642193 0.09863463 -0.0037919846
2.3823307 0.0027374998 -0.016719654
2.3828039 0.0099479705 -0.020815529
2.3836451 0.020062704 -0.023195025
2.447926 0.10176769 -0.0064407652
2.4535003 0.10246836 -0.0015779138
2.3665171 0.012954079 -0.013824088
2.3743999 0.017205346 -0.016939972
2.3792906 0.027628165 -0.019821066
2.3820443 0.037519723 -0.019291211
2.3983014 0.059280664 -0.015224345
2.4041278 0.067536131 -0.013867572
2.4295816 0.098928854 -0.0067095608
2.4383075 0.10269699 -0.001915474
2.4466522 0.10415494 0.0021855053
2.3603096 0.016963989 -0.013737764
2.3645675 0.023958493 -0.016771477
2.3715358 0.034216881 -0.017290819
2.3788826 0.043582041 -0.013659143
2.3866189 0.052640829 -0.011564965
2.3952343 0.060016662 -0.0091045881
2.402348 0.070524417 -0.007749089
2.4076338 0.081514448 -0.0063155508
2.4145193 0.09102121 -0.0043878974
2.4231997 0.098244168 -0.0016578627
2.4303055 0.10236103 0.0022862253
2.3555894 0.021873057 -0.011862251
2.3551891 0.030854482 -0.013718854
2.3619547 0.041390166 -0.014820272
2.3686769 0.048228424 -0.0089964168
2.3458626 0.039220411 -0.013270379
2.3537939 0.050018664 -0.010935282
2.3601148 0.056356456 -0.0061530489
2.3657959 0.067145273 -0.0068831467
2.3696706 0.077535249 -0.004693557
2.3404365 0.045841359 -0.013385189
2.3440003 0.050846126 -0.011893112
2.3526313 0.065101728 -0.0055376226
2.3569212 0.073401302 -0.0090447217
2.365016 0.083102822 -0.0042425478
2.3708997 0.091217048 -0.0053328555
2.3496661 0.079956636 -0.0046567526
2.3542814 0.089805216 -0.0037417072
2.3603935 0.09475638 -0.0079203071
2.3505812 0.097576074 -0.0047842255
2.3515861 0.10116243 -0.0058350046
2.4412522 -0.025843773 -0.016819902
2.4459937 -0.02213262 -0.014840834
2.4534221 -0.012482213 -0.013495291
2.4603395 -0.0024830848 -0.011527138
2.4652276 0.0028451905 -0.0073686088
2.4837394 0.030276529 -0.0016772911
2.4878721 0.035078112 -0.0051653655
2.4958847 0.046640836 -0.0038212277
2.5011084 0.053141013 0.00090563903
2.4399509 -0.024871569 -0.016740229
2.4385169 -0.018095616 -0.013773849
2.4404671 -0.0086851493 -0.0080918185
2.4605505 0.00011466257 -0.0057520284
2.465801 0.011690874 -0.0094553595
2.4709976 0.018717404 -0.0072733574
2.4779801 0.028145205 -0.0055314368
2.4848652 0.035644513 -0.0073635997
2.4941728 0.046195727 -0.0020572774
2.5018513 0.058117323 -0.0024376982
2.5049574 0.067397907 0.0018567424
2.505832 0.077756152 0.0045058057
2.4280221 -0.0044121929 -0.009272337
2.4356287 -0.0031250156 -0.010643302
2.5026634 0.087310441 0.0053175925
2.5007725 0.092048228 0.010993207
2.4128325 -0.010063112 -0.011495834
2.4226403 -0.00681898 -0.012118882
2.4837685 0.088089749 0.0023310212
2.4909871 0.094435349 0.0060403189
2.4970727 0.094981223 0.011127067
2.3969672 -0.010295503 -0.010632165
2.4030859 -0.010386202 -0.012576641
2.476902 0.092523828 0.0070588575
2.4850981 0.093859628 0.011094499
2.3880343 -0.0065485239 -0.010880883
2.4665082 0.099001281 0.0086336695
2.378844 0.0010002479 -0.009094486
2.3767626 0.0075598136 -0.01315917
2.4548264 0.10327984 0.0095980689
2.367882 0.0070135221 -0.0075933086
2.3741868 0.0099323019 -0.012249119
2.4380965 0.1041414 0.010301547
2.4461033 0.10426486 0.010704789
2.3576546 0.011908352 -0.0065982556
2.3780062 0.049349744 -0.0050490461
2.383796 0.052328754 0.00074511999
2.3931122 0.059708022 0.0023357435
2.3991408 0.070362262 0.0043714596
2.4042113 0.081536882 0.0063643185
2.4107871 0.091415569 0.0080843698
2.4206488 0.09880057 0.0096489359
2.4299681 0.10250099 0.010913715
2.3500381 0.020753987 -0.0044359537
2.3492637 0.028224915 -0.0079936674
2.3713551 0.051944785 0.00031263195
2.3771107 0.05021292 0.0032665599
2.3415978 0.027722284 -0.00052244775
2.342958 0.036665648 -0.0020898208
2.3487592 0.048653487 0.00062973704
2.36202 0.056728192 0.0049924771
2.3657372 0.063723475 0.0030439477
2.3679709 0.073619708 0.00075115263
2.3435695 0.043905854 -0.001682898
2.3451786 0.045092687 0.0016585859
2.3519013 0.061122153 0.0029190378
2.3571005 0.071034655 0.0037478395
2.3660264 0.077650554 0.0023987051
2.3520415 0.077423409 0.0021159048
2.3534865 0.08284454 0.001889531
2.4471033 -0.021697383 -0.0041911593
2.4523096 -0.016676515 -0.0015259134
2.4628921 6.86571e-06 0.0022578072
2.4655924 0.0022332575 0.0011329739
2.4838536 0.029286511 0.0034925395
2.4879062 0.032427046 0.0079828445
2.4962549 0.043676376 0.012038995
2.5008032 0.051048797 0.009322647
2.4431827 -0.01828517 -0.0037717544
2.4440887 -0.0096763112 -0.00011613034
2.4616845 0.0011996347 -0.0033486276
2.4668658 0.0095362701 0.0037015891
2.4713805 0.016371459 0.0044842474
2.4786663 0.026069559 0.0064331675
2.4838972 0.030426646 0.011280405
2.4960997 0.04669806 0.0079545341
2.5019851 0.05503954 0.013986025
2.5050421 0.065071106 0.013949996
2.5063043 0.07567358 0.015354922
2.4280069 -0.0063363835 -0.0015611667
2.4374928 -0.0022470318 0.001344908
2.5035632 0.084986165 0.018247418
2.5009551 0.091053307 0.01564323
2.4128349 -0.012250427 -0.00032969378
2.422785 -0.0093047805 0.0013579587
2.4290354 -0.0044111311 0.0065258779
2.4833031 0.085372135 0.022107942
2.4918787 0.092854053 0.021542396
2.4968624 0.0942211 0.016852636
2.3970475 -0.012469865 -0.0007670233
2.4036784 -0.012845032 0.00059459824
2.4767935 0.090282068 0.01920972
2.485163 0.092885695 0.017825386
2.3876371 -0.0095462985 0.0010003503
2.466537 0.096357614 0.020329094
2.3783798 -0.0020688847 0.0025103297
2.4550636 0.10051844 0.021384945
2.3676198 0.0026636496 0.0038443515
2.438503 0.10174847 0.022546304
2.4464221 0.10199234 0.021723717
2.3561099 0.0067898482 0.0044535249
2.3850842 0.049021918 0.013109447
2.3940392 0.056761116 0.01427304
2.3994241 0.067892946 0.016188322
2.4042716 0.079249859 0.01837186
2.4109497 0.089141175 0.020275459
2.4207566 0.096486248 0.021638039
2.4300756 0.10046829 0.021978928
2.3479438 0.016259879 0.0064504836
2.3711095 0.049082983 0.013415667
2.377053 0.048913587 0.011308927
2.3393691 0.024074435 0.0082582338
2.3407977 0.035240307 0.011152088
2.3508775 0.049950648 0.013529913
2.3587196 0.053181313 0.013704034
2.3433094 0.040429913 0.011190151
2.3471341 0.045498457 0.012795055
2.4475598 -0.024153795 0.0091954144
2.4534082 -0.016845072 0.010478762
2.4605858 -0.0072969124 0.0130799
2.4648917 -0.00037526712 0.011857633
2.4904859 0.034809999 0.01795591
2.4948277 0.039897434 0.020482277
2.4415896 -0.020735048 0.010561876
2.4416749 -0.011739612 0.0097626541
2.4659278 0.0064423271 0.014755297
2.4712958 0.014285965 0.016337592
2.4781241 0.023872703 0.018213933
2.4851203 0.032590486 0.019097673
2.4964952 0.045192439 0.024467638
2.496949 0.054126728 0.023718815
2.5014729 0.064776964 0.023909083
2.5041678 0.072568282 0.022469306
2.4389203 -0.0037361868 0.01377869
2.4911442 0.062242504 0.02928037
2.4942732 0.070200965 0.028913867
2.4996784 0.079520248 0.026599206
2.4125361 -0.011678558 0.0097823106
2.4203634 -0.0077200457 0.012898479
2.4295597 -0.0010596812 0.015723577
2.4846969 0.077218622 0.028926782
2.4918377 0.086179137 0.027327271
2.39643 -0.012059778 0.0080740536
2.4038677 -0.011407442 0.01303103
2.4122713 -0.0091736838 0.017915793
2.474654 0.084027097 0.030615874
2.3894777 -0.0089716502 0.010038308
2.3925154 -0.0070629939 0.016321044
2.4646518 0.090712011 0.031742472
2.3812246 -0.0027640238 0.010854129
2.3827131 0.0014319643 0.017246053
2.449151 0.092322513 0.036004175
2.4542546 0.095617421 0.031333886
2.3678794 0.0017254129 0.015445535
2.376394 0.0045640916 0.017715085
2.3889818 0.031336825 0.025429713
2.3947146 0.039280046 0.025539842
2.4013643 0.049045503 0.027093984
2.4055295 0.057468627 0.030679286
2.423557 0.083213679 0.037089739
2.4303536 0.089182958 0.036663052
2.4389501 0.09580788 0.03315004
2.446852 0.099266417 0.029082226
2.3570306 0.0054290742 0.016407497
2.3808815 0.038770553 0.025291957
2.3874774 0.043828756 0.020473119
2.397012 0.052958935 0.022015041
2.4032481 0.063938126 0.026730632
2.408076 0.074314699 0.029986
2.4152329 0.083916344 0.031847555
2.423636 0.091630086 0.032023873
2.4303758 0.09728694 0.029781658
2.3486867 0.014748387 0.018353447
2.3650603 0.037070118 0.028063141
2.3697741 0.042622816 0.024008408
2.3416865 0.022175021 0.019153692
2.3434994 0.032864291 0.022621186
2.3500733 0.043157067 0.024878081
2.3586376 0.048208762 0.024429582
2.3462834 0.042663731 0.018840149
2.4479289 -0.025319967 0.018756486
2.4531152 -0.019014981 0.021806136
2.4601142 -0.0092208218 0.022618895
2.4667566 -0.0011292938 0.027025521
2.4748104 0.0091466783 0.031294499
2.4820101 0.019213267 0.031614687
2.4887207 0.028819265 0.030784676
2.4938867 0.036656879 0.030169973
2.4431672 -0.022423612 0.020136211
2.4471841 -0.015106386 0.025544606
2.4548185 -0.0049377009 0.025745016
2.4590259 0.0025133211 0.02853315
2.4708958 0.013362404 0.024605673
2.476584 0.023978915 0.033770937
2.4835937 0.031935703 0.035706531
2.4903131 0.042719118 0.034129236
2.4924033 0.050929524 0.031173157
2.4423068 -0.0078433491 0.019947436
2.4445546 0.0022716708 0.023584113
2.452378 0.01191441 0.025986481
2.457315 0.017870536 0.033188961
2.4806509 0.039981075 0.039543599
2.4826586 0.04943341 0.03836327
2.4858837 0.058905832 0.034951646
2.4190607 -0.0043077208 0.020903099
2.4262111 0.0021505244 0.022959931
2.4348474 0.0085879751 0.026686428
2.4426086 0.019018324 0.028352452
2.4481113 0.022349417 0.034297779
2.474123 0.058308676 0.042225961
2.4778695 0.065818928 0.038468145
2.4811251 0.072591692 0.034603789
2.4042087 -0.0074916482 0.021034118
2.4113615 -0.0033386908 0.024627907
2.4185796 0.0057359487 0.028910434
2.4252985 0.0156244 0.03042997
2.4330125 0.024514437 0.032648459
2.4682782 0.072774485 0.041572008
2.4723065 0.07879208 0.036684442
2.3959 -0.0034213178 0.023183938
2.4012723 0.0032009371 0.02908279
2.4085379 0.012513425 0.032173723
2.4157257 0.02245675 0.032544129
2.4225123 0.031428739 0.035585113
2.4229746 0.040117554 0.039081059
2.4506283 0.073425263 0.046435051
2.4583728 0.079683326 0.042957295
2.4633532 0.085132763 0.038081974
2.3873234 0.004271362 0.023618974
2.3918166 0.010569695 0.027840868
2.3991435 0.020103488 0.030916125
2.4060504 0.029648136 0.032004498
2.4135761 0.038781811 0.034951843
2.4201822 0.048256643 0.03821763
2.4269481 0.058638562 0.040951729
2.4332793 0.067799456 0.042511042
2.4420278 0.07703042 0.044436689
2.4486792 0.085479952 0.040883958
2.3680103 -0.0002322495 0.02743094
2.3775442 0.0054711923 0.02930334
2.3834531 0.017425653 0.029861493
2.3890171 0.02604482 0.028087573
2.3997855 0.034698401 0.029579498
2.4069369 0.044760372 0.031627793
2.4117494 0.055847552 0.035288662
2.4176819 0.065240517 0.03858348
2.4250424 0.0749503 0.039356794
2.4327178 0.083051704 0.039153799
2.4402285 0.08866851 0.039130364
2.3584931 0.0044946 0.028944835
2.3735867 0.026602384 0.034856539
2.3784268 0.03208521 0.030557781
2.4123628 0.07043317 0.035450451
2.4177074 0.077718973 0.036508009
2.3507655 0.013878971 0.029746212
2.3526824 0.021727972 0.036184203
2.3626993 0.031548318 0.03408036
2.3708467 0.03516224 0.029431522
2.3456073 0.021212228 0.027784839
2.3485043 0.027743783 0.031943873
2.3543036 0.036960773 0.032439768
2.3593578 0.04226657 0.030420577
2.4683733 0.00020669773 0.034390505
2.4739666 0.0075983405 0.035725959
2.4793286 0.015642276 0.035437521
2.4630749 0.0025204998 0.036036327
2.4688513 0.011782577 0.038248394
2.4754093 0.020342885 0.036835901
2.4784234 0.033325642 0.039556369
2.4590719 0.010366341 0.035055656
2.4595344 0.021178704 0.03861279
2.4663007 0.02807996 0.042558428
2.4735813 0.037914503 0.044010215
2.477335 0.04701589 0.042500734
2.4499016 0.026305843 0.042045694
2.456624 0.034422949 0.047338523
2.4641099 0.044349916 0.048296683
2.4700754 0.053742949 0.045319788
2.4335268 0.027985591 0.041100953
2.439712 0.03130332 0.046078216
2.4470763 0.041020114 0.050549645
2.4542725 0.051153686 0.050601747
2.4612398 0.061418697 0.048246283
2.4632568 0.068316512 0.04631507
2.427525 0.032523047 0.041639298
2.4301076 0.038952738 0.047079045
2.4376168 0.048063375 0.05070632
2.4449263 0.05794704 0.051056448
2.4517672 0.067290477 0.048079826
2.4264095 0.046698503 0.044566173
2.4309871 0.054319214 0.046932347
2.43753 0.062834829 0.047334332
2.4431274 0.069246732 0.046855297
2.3676319 0.0031411126 0.034908231
2.3739774 0.0082315318 0.0377247
2.3790879 0.014723137 0.039144278
2.3613644 0.0073915422 0.036390439
2.3655763 0.012805104 0.040535122
2.3723028 0.020057786 0.040794019
2.3559299 0.012143269 0.036888741
2.3580887 0.019196279 0.039805282
2.3631377 0.023961633 0.03971789
