# .PCD v0.7 - Point Cloud Data file format
VERSION 0.7
FIELDS x y z
SIZE 4 4 4
TYPE F F F
COUNT 1 1 1
WIDTH 1387
HEIGHT 1
VIEWPOINT 0 0 0 1 0 0 0
POINTS 1387
DATA ascii
2.4945312 0.049658332 0.02504185
2.4950645 0.050829254 0.025075329
2.4956117 0.051903471 0.025150761
2.4961419 0.052985348 0.025228234
2.4967008 0.054059856 0.025311716
2.4972403 0.055140093 0.02538709
2.4977906 0.056291215 0.025434654
2.4983261 0.057372481 0.025510743
2.4988463 0.058536679 0.02553802
2.4993398 0.059796311 0.02551328
2.4998581 0.06096299 0.02554363
2.5002754 0.06241063 0.025405565
2.5007343 0.063764185 0.025323242
2.5011654 0.065210432 0.025192544
2.5016561 0.066469662 0.025160734
2.5020714 0.067966081 0.024972865
2.5024838 0.0695557 0.024732504
2.5028865 0.071052603 0.024539288
2.5032022 0.072945252 0.024119332
2.4162266 0.01204801 0.037006222
2.3930438 -0.0055933259 0.021286692
2.3767321 0.024412543 0.03571865
2.3760855 0.024286695 0.036982704
2.3688164 0.01496375 0.037482008
2.4204862 0.010221388 0.033963386
2.4304166 -0.024557214 0.0010091499
2.4312277 -0.024226613 0.0015311418
2.4320133 -0.023805531 0.0020043813
2.4327669 -0.023298139 0.0024226345
2.4335232 -0.02278861 0.0028371154
2.4342413 -0.022194643 0.0032052924
2.4349322 -0.021509957 0.0035213702
2.4356263 -0.020821571 0.0038389307
2.4363158 -0.020138016 0.0041539879
2.437006 -0.019453278 0.0044701691
2.4376965 -0.018768437 0.0047845533
2.4383862 -0.018084597 0.0050991359
2.4390781 -0.01739851 0.0054188762
2.4397676 -0.016714141 0.0057312017
2.4404292 -0.015939105 0.0059995656
2.4410877 -0.015167564 0.0062608337
2.4418097 -0.01457005 0.0066266595
2.4425001 -0.013884358 0.0069465623
2.4430957 -0.012938384 0.0071062301
2.4438167 -0.01234135 0.0074715051
2.4536731 0.0020677224 0.010481205
2.4548182 0.0014508367 0.011563791
2.45573 0.0014893617 0.012262465
2.4565191 0.001907222 0.012734765
2.4572048 0.002601549 0.013044722
2.4577947 0.0035786293 0.013184926
2.4583509 0.0046500154 0.013272513
2.4585817 0.0066581182 0.012808081
2.4583297 0.010073863 0.011511764
2.4589827 0.010860855 0.011764202
2.459573 0.011838311 0.01190736
2.4602282 0.012627812 0.012158949
2.4609153 0.013322948 0.012467577
2.4615402 0.014208551 0.012668436
2.4622254 0.01490228 0.012972297
2.4628825 0.015694188 0.013225137
2.4635365 0.016481847 0.013481366
2.4641924 0.017272452 0.01373387
2.4648793 0.017967954 0.014042336
2.4655328 0.018755322 0.014293505
2.466188 0.019545086 0.014546827
2.4668756 0.020240605 0.014856101
2.4675651 0.020939384 0.015164202
2.4682188 0.021726796 0.01541839
2.4688745 0.022517491 0.015667791
2.4695275 0.023304773 0.01592277
2.4701824 0.024093818 0.01617421
2.4708712 0.024791406 0.016482087
2.4715264 0.025581203 0.016737124
2.4721804 0.026369208 0.016987253
2.4728687 0.027065722 0.017297331
2.4735222 0.027853627 0.017551167
2.4742112 0.028549928 0.017859213
2.4749935 0.028962839 0.018331513
2.4757829 0.029377947 0.018805943
2.4766297 0.02960597 0.019392727
2.4774475 0.029928118 0.019925255
2.4782634 0.030248677 0.020454202
2.4790497 0.030661449 0.020925472
2.4798353 0.031076431 0.021400902
2.4806192 0.03149163 0.021876555
2.4814038 0.031904027 0.022347296
2.4821584 0.032413144 0.022767667
2.4829419 0.032826744 0.023241043
2.4836609 0.033427957 0.02360495
2.4843833 0.034030885 0.023968823
2.4851034 0.034632698 0.024333797
2.4857912 0.035328396 0.024640976
2.4864461 0.036117494 0.024890916
2.4871333 0.036812797 0.025202679
2.4877882 0.037602369 0.025451558
2.4884436 0.038392097 0.025705786
2.4890993 0.039182484 0.02596028
2.4897535 0.039970819 0.026213458
2.4903779 0.040856943 0.02640824
2.4910002 0.041739415 0.026608879
2.4916527 0.042529278 0.026861014
2.492048 0.044070598 0.026669834
2.4924412 0.045607336 0.026483614
2.4928706 0.047054969 0.026346829
2.4934008 0.048303157 0.026337208
2.4939187 0.049466565 0.026369231
2.4943984 0.050805524 0.026305247
2.4949083 0.051980771 0.026329776
2.4954276 0.053142458 0.026361115
2.4959812 0.054213244 0.026448943
2.4965396 0.055208728 0.026567206
2.4971049 0.056272924 0.026662165
2.4976513 0.057351902 0.026740106
2.4981785 0.05851227 0.026774004
2.4987149 0.059674166 0.026812367
2.4992149 0.060847007 0.026831433
2.4996698 0.062198207 0.026751388
2.500088 0.063645132 0.026613344
2.5005329 0.065088555 0.026486143
2.501004 0.066350952 0.026453592
2.5014572 0.06765186 0.026374632
2.5018704 0.06932202 0.026104979
2.5022418 0.07091701 0.025852391
2.4047687 -0.0066051707 0.013476333
2.4001057 -0.0028073899 0.029116293
2.4175379 0.0088231526 0.03386303
2.3653128 0.01242727 0.03729704
2.3660276 0.013035048 0.037666164
2.4079616 -0.00095142797 0.029427379
2.4161086 0.00043304265 0.025050309
2.4297473 -0.023767009 0.0017247703
2.3632569 0.012443356 0.04097461
2.405647 -0.0065128207 0.014122075
2.4321022 -0.023303453 0.0036222008
2.4328873 -0.022884963 0.0040900535
2.4336383 -0.022376811 0.0045117401
2.4343939 -0.021867409 0.0049318383
2.4351134 -0.021272758 0.0052977721
2.435838 -0.020673668 0.0056622508
2.4364958 -0.019902494 0.0059300163
2.4372184 -0.019304413 0.0062935879
2.437907 -0.018621286 0.0066103106
2.4385993 -0.017934699 0.0069281911
2.4392905 -0.017248617 0.0072429036
2.4399779 -0.016566642 0.0075583025
2.4406703 -0.01587965 0.0078766271
2.441359 -0.015196402 0.0081916517
2.4420495 -0.014511624 0.0085085444
2.4427087 -0.013738517 0.0087750014
2.4434917 -0.01331885 0.0092411702
2.4542179 0.0012420975 0.012897119
2.4551337 0.0012823734 0.01358973
2.4559834 0.001509944 0.014175255
2.4567041 0.0021134075 0.014542909
2.4573581 0.0029033124 0.014793842
2.4578817 0.004067285 0.014825206
2.4582105 0.0057911798 0.014524036
2.4578896 0.0093939845 0.013123326
2.4585135 0.010279886 0.013318586
2.4591348 0.011161327 0.013516104
2.4597917 0.01195211 0.013772849
2.4604783 0.012647457 0.014077984
2.4611635 0.013341175 0.014388178
2.4617872 0.014225777 0.014583406
2.4624417 0.015014107 0.0148403
2.4630959 0.015802905 0.015090612
2.4637856 0.016501907 0.015400644
2.4644053 0.017381005 0.015599227
2.4650948 0.018078942 0.015905529
2.4657822 0.018774955 0.016216861
2.4664359 0.019562844 0.01646889
2.4671247 0.020260464 0.016776567
2.4677777 0.021047428 0.017030612
2.4684336 0.021838252 0.01728314
2.4690893 0.022628805 0.017534837
2.4697449 0.023418946 0.017789006
2.4703984 0.024206512 0.018040696
2.4710858 0.024902588 0.018349323
2.4717066 0.025783855 0.01854823
2.4723952 0.026480377 0.018858306
2.4730511 0.027270807 0.019107176
2.473736 0.02796407 0.019419031
2.4743915 0.028754022 0.019669157
2.4750788 0.029449556 0.019978331
2.4758339 0.029959649 0.020400114
2.4766169 0.03037248 0.020872202
2.4774327 0.03069365 0.021402819
2.4782205 0.031108916 0.021876566
2.4790046 0.031522237 0.022349311
2.4798212 0.031843137 0.022878995
2.480572 0.032350864 0.023297921
2.4813597 0.032764975 0.023770941
2.4821434 0.033180602 0.024247546
2.4829314 0.033595197 0.024720619
2.4836824 0.034103744 0.025141641
2.4844663 0.034517672 0.025615657
2.4852211 0.035025977 0.026032723
2.4859414 0.035627697 0.026398292
2.4866602 0.036227901 0.026760282
2.4873168 0.037019085 0.027013047
2.4880033 0.037714146 0.027319962
2.4886575 0.038502313 0.027576238
2.4893122 0.039291926 0.027825225
2.489969 0.040084243 0.028080219
2.4905903 0.040965915 0.02827967
2.4912121 0.041850407 0.028475596
2.4916058 0.043388344 0.028287182
2.4919684 0.04502482 0.02804438
2.4922988 0.046752416 0.027745005
2.4928555 0.047907326 0.027792953
2.4933133 0.049258836 0.027711621
2.4937754 0.050523706 0.027676633
2.4942546 0.051871311 0.027609434
2.4946945 0.053230003 0.027518939
2.4951947 0.054482184 0.027504168
2.4957478 0.055554152 0.02758689
2.4963503 0.056456096 0.027760442
2.4969172 0.057516988 0.027864108
2.4974735 0.058586121 0.027951455
2.4980159 0.059662372 0.028030328
2.4985414 0.060825542 0.028064623
2.4990158 0.062170278 0.027995322
2.4994631 0.063526101 0.027909238
2.4998891 0.064970464 0.027773427
2.5003135 0.066416979 0.027640155
2.5007904 0.0676018 0.027635787
2.5012076 0.069186792 0.027407199
2.5015719 0.070878692 0.027106838
2.3476665 0.054365024 -0.027137756
2.4168229 0.0010467619 0.025409803
2.3740318 0.021797463 0.041308984
2.3714507 0.021403503 0.046438962
2.3898983 -0.0061932057 0.015722495
2.4175296 0.0031836815 0.028695416
2.4036403 -0.0068750344 0.011016622
2.3671603 0.013651304 0.03488287
2.4065332 -0.0063645579 0.014750016
2.4168239 0.0025629625 0.028344428
2.4321311 -0.022623647 0.0051403977
2.4329441 -0.022294208 0.0056590163
2.4337294 -0.021874301 0.0061295307
2.4345121 -0.021454908 0.0066002971
2.4352646 -0.02094708 0.0070200344
2.4359868 -0.020351106 0.0073855994
2.4367404 -0.019842125 0.007805055
2.4374313 -0.019156698 0.0081231184
2.438122 -0.018471677 0.0084365159
2.4388416 -0.017876819 0.0088064941
2.4395313 -0.017191978 0.0091205779
2.4401913 -0.016418008 0.0093874251
2.4409134 -0.015820704 0.0097533297
2.4416349 -0.015223105 0.01012359
2.4422917 -0.014452359 0.010387994
2.4429507 -0.013678964 0.01065026
2.4438596 -0.013612378 0.011324018
2.4535835 0.0011275932 0.014169976
2.454597 0.00088562816 0.0150349
2.4554484 0.0011129268 0.015618382
2.4562676 0.0014368426 0.016144559
2.4569199 0.0022233576 0.016399963
2.4575105 0.0032040644 0.016545169
2.4579358 0.0046452526 0.016407318
2.4574206 0.0088117681 0.014674768
2.4581394 0.0094132051 0.01503719
2.4587939 0.010203149 0.01529526
2.4593825 0.011177739 0.015434604
2.4600387 0.011968719 0.01569117
2.4606936 0.012758445 0.015941074
2.4613483 0.013546962 0.016196987
2.4620368 0.014245043 0.016507026
2.4626572 0.015125069 0.016703993
2.4633141 0.015916634 0.016955893
2.4640012 0.016612802 0.017265636
2.464654 0.017399296 0.017519329
2.4653096 0.018189799 0.01777263
2.4659643 0.018978905 0.018023675
2.4666524 0.019675836 0.01833068
2.467308 0.020466186 0.018585373
2.4679606 0.02125277 0.018839577
2.4686174 0.022044528 0.019092305
2.4692733 0.022834487 0.019345544
2.4699593 0.023529448 0.019652149
2.470614 0.02431831 0.01990759
2.4712689 0.025108326 0.020160139
2.4719243 0.025897395 0.020416509
2.4726105 0.026592366 0.02072442
2.4732637 0.027379978 0.020973802
2.4739213 0.028172623 0.021231648
2.4745736 0.028959114 0.021483731
2.4752626 0.029656675 0.021792209
2.4759176 0.030445304 0.022047022
2.4766695 0.030953962 0.022464639
2.4773884 0.031555075 0.022828029
2.4781733 0.031969082 0.023301048
2.4789593 0.032384891 0.023776259
2.4797435 0.032799043 0.024250193
2.4805281 0.033214007 0.024725322
2.4813144 0.033628702 0.02519951
2.4820971 0.034041777 0.02567203
2.4828844 0.034456175 0.026146691
2.4837024 0.034776639 0.02667472
2.4844885 0.035190105 0.027146971
2.4853044 0.03551057 0.027678117
2.4860892 0.035924394 0.028152322
2.4868753 0.036338918 0.028627096
2.4875641 0.037036523 0.028934274
2.4882183 0.037825514 0.029188322
2.488874 0.038615961 0.029443327
2.4894972 0.039500427 0.029637029
2.4901497 0.040286966 0.029894348
2.4907722 0.041172694 0.0300905
2.4912961 0.042338356 0.030121438
2.4915917 0.044157177 0.029771533
2.4919536 0.045790844 0.029525323
2.4921696 0.04750818 0.029448308
2.4926791 0.049056046 0.0290388
2.4930863 0.050505828 0.028896252
2.4935305 0.051860876 0.028819242
2.4939234 0.053401016 0.028614072
2.4943614 0.054848164 0.028485764
2.4949021 0.056006774 0.028533125
2.4954853 0.056988597 0.028668309
2.4961252 0.057791732 0.028902348
2.4967282 0.058759898 0.029061405
2.4972711 0.059836999 0.029139964
2.4978256 0.060906537 0.029228464
2.498317 0.062156498 0.029209759
2.4987781 0.063505523 0.029137313
2.4991899 0.065039113 0.028957564
2.4996223 0.066398546 0.028863838
2.5000429 0.067763388 0.028754624
2.5004938 0.069250457 0.028595168
2.3465643 0.055627104 -0.033898234
2.4203048 0.0051425546 0.028524596
2.3967578 -0.0066229776 0.01591282
2.5004838 0.061478078 0.0030923567
2.3686562 0.018590111 0.045028374
2.400924 -0.0024893433 0.029638536
2.3997607 -0.0063875914 0.019798338
2.3966823 -0.0036904775 0.026814185
2.3589201 0.012718454 0.022187304
2.4049151 -0.002106104 0.029154394
2.357635 0.011275373 0.028583955
2.3632946 0.011384003 0.032638632
2.3679118 0.014158592 0.035301544
2.3708842 0.016286794 0.036931481
2.3760235 0.025155071 0.038452007
2.4017372 -0.0044217594 0.025761548
2.3943903 -0.0063591115 0.017443031
2.3436358 0.058699362 -0.044589691
2.4338136 -0.021196745 0.0076402416
2.4345772 -0.020822953 0.0081411712
2.4353485 -0.020478874 0.008657583
2.4361148 -0.02010851 0.0091575468
2.4368908 -0.019518852 0.0095245549
2.4376442 -0.019010808 0.0099426052
2.4383335 -0.018326348 0.010260671
2.4390557 -0.017729022 0.010625774
2.4397161 -0.01695461 0.010895384
2.4404359 -0.016358998 0.011258902
2.4411583 -0.015760742 0.011628426
2.4418182 -0.014986409 0.011892899
2.4425054 -0.014304273 0.012212837
2.4431674 -0.013529019 0.012478305
2.4440105 -0.013287477 0.013046
2.4539995 0.00067769922 0.016361367
2.4548829 0.00081073865 0.017000999
2.4557986 0.00085287541 0.017696416
2.4564831 0.0015460439 0.018005954
2.4571052 0.0024305563 0.0182059
2.4575641 0.0037807133 0.018123422
2.457016 0.0080412738 0.016337521
2.4577336 0.0086415987 0.016702645
2.4583561 0.0095256139 0.016903445
2.458945 0.010500822 0.01704466
2.4596012 0.011292208 0.017296646
2.4602573 0.012082592 0.017552447
2.4609098 0.012869596 0.017804584
2.4615643 0.013658443 0.018059423
2.4622202 0.014448714 0.018314209
2.4629059 0.0151433 0.01862268
2.4635301 0.016028523 0.018821187
2.4641838 0.016816396 0.01907251
2.4648705 0.017511576 0.019381847
2.4655249 0.018300552 0.019633282
2.4662142 0.018999267 0.019943085
2.4668338 0.019878825 0.020141413
2.4675229 0.020576172 0.020452483
2.4681771 0.021365266 0.020701317
2.4688315 0.022153912 0.020957438
2.469486 0.022943189 0.021210916
2.4701753 0.023641141 0.021519231
2.47083 0.024430575 0.021772526
2.471483 0.025218129 0.022023913
2.4721398 0.026009854 0.022278545
2.4727926 0.026796304 0.022534447
2.4734819 0.027495187 0.022843665
2.4741013 0.028374713 0.023038266
2.4747574 0.029165622 0.023294931
2.4754119 0.029954512 0.023547864
2.4761 0.030651387 0.023855364
2.4767535 0.03143952 0.024110129
2.4774396 0.032134257 0.024419123
2.4781587 0.032735694 0.02478295
2.4789121 0.03324559 0.025202202
2.4796994 0.033659652 0.025674012
2.4804852 0.034075029 0.026149379
2.4812675 0.034487288 0.026620405
2.4820526 0.034902673 0.027098292
2.4829011 0.035129391 0.02768242
2.4837542 0.035355628 0.028266793
2.484637 0.035488088 0.028905557
2.4855225 0.035622146 0.029543681
2.4863718 0.035848971 0.030129125
2.4871252 0.036358528 0.030547637
2.4878118 0.037054516 0.030856153
2.4884338 0.037937164 0.031052083
2.4890878 0.038726181 0.031305734
2.4897108 0.039609578 0.031507373
2.490365 0.040400289 0.031759091
2.4908555 0.041657083 0.031735871
2.4912488 0.043196604 0.031548534
2.4915826 0.045016475 0.031201677
2.4917881 0.046926145 0.030796897
2.4920671 0.048757091 0.030418528
2.4924333 0.050390672 0.030185869
2.4927714 0.052022759 0.029913297
2.4930909 0.053933017 0.029543133
2.4934871 0.055386938 0.029375505
2.4940166 0.056632929 0.029397227
2.4946182 0.057531372 0.029565085
2.4952576 0.058335625 0.029792007
2.4958925 0.05920808 0.030010074
2.496484 0.060180366 0.030162442
2.4970701 0.061158601 0.030303679
2.4975927 0.062319979 0.030339601
2.4980493 0.063582875 0.030299895
2.4984741 0.065027587 0.030165128
2.4988978 0.066440359 0.029991429
2.4993048 0.067921489 0.029883329
2.3916175 -0.0064756796 0.015397364
2.4117615 -0.0015627258 0.025730584
2.4045513 0.0011313967 0.033029377
2.4105682 0.0036927164 0.033435121
2.3696992 0.015822798 0.039620988
2.3645451 0.014711183 0.043081485
2.3580976 0.011861637 0.02702943
2.3915708 -0.0051675327 0.023439121
2.4069057 0.0016443804 0.032948248
2.3745596 0.020846356 0.036736447
2.409456 -0.0029455237 0.024407033
2.3591938 0.010680318 0.038478401
2.4209886 0.0058289059 0.028839653
2.4051232 0.0029052831 0.034622174
2.3587227 0.010944255 0.029454602
2.3641198 0.011695832 0.033155888
2.3597925 0.010202423 0.035578355
2.3715646 0.016985286 0.037248209
2.4176166 0.0017180219 0.025837988
2.418258 0.0022516176 0.026142497
2.3746257 0.01627706 0.032661699
2.4095008 -0.0023135133 0.025933173
2.3553531 0.012146384 0.01970331
2.4079545 -0.003206186 0.025036445
2.4183295 0.013224691 0.036603816
2.4176478 0.012571272 0.036228452
2.4110072 -0.00054974109 0.028241429
2.4370124 -0.019106094 0.011194037
2.4377971 -0.018687153 0.011661336
2.4385505 -0.018178333 0.012080071
2.4392726 -0.01758109 0.012449289
2.4399927 -0.016985146 0.012817465
2.4406533 -0.01620983 0.013084756
2.4413738 -0.015613254 0.013450585
2.4420626 -0.014928823 0.013767948
2.4426904 -0.01406642 0.013984473
2.4433184 -0.013206111 0.014199577
2.4441624 -0.012963105 0.014766816
2.4534974 0.00018783286 0.017855261
2.454479 4.0747225e-05 0.018658876
2.4553573 0.00019035488 0.019287072
2.4560175 0.00096686557 0.019553987
2.456604 0.0019399673 0.019699011
2.4571271 0.0031059291 0.019731592
2.4572275 0.0054891817 0.019047206
2.4572649 0.0080586672 0.018256826
2.4579189 0.0088490266 0.018509911
2.458508 0.0098239593 0.018653013
2.4591646 0.010616256 0.018907405
2.4597838 0.011495396 0.019101867
2.4604714 0.012191307 0.019412987
2.461096 0.013077209 0.019610766
2.4617801 0.013769665 0.019921431
2.4624367 0.014561144 0.020174129
2.4630926 0.015352024 0.02042797
2.4637473 0.01614112 0.020683037
2.4644001 0.016928196 0.020934781
2.4650869 0.017624035 0.02124479
2.465708 0.018505501 0.021442711
2.466398 0.01920424 0.021751812
2.4670506 0.019990783 0.022006413
2.4677403 0.020689752 0.022313327
2.4683945 0.021478504 0.022568861
2.4690485 0.022266623 0.022821512
2.4697013 0.023054086 0.023075307
2.4703569 0.023844736 0.023327116
2.4710112 0.024633022 0.023582499
2.4716656 0.025422547 0.023836404
2.472353 0.026118433 0.02414491
2.4730086 0.026908547 0.024396861
2.4736648 0.027699888 0.02465025
2.4743185 0.028488452 0.024904761
2.4749403 0.029370766 0.025103068
2.4755943 0.030159511 0.02535639
2.4762487 0.030948848 0.025608366
2.4769034 0.031737849 0.025865735
2.4775593 0.032528345 0.026120845
2.478246 0.033223495 0.026426058
2.4789319 0.033917502 0.026733262
2.4796853 0.034426507 0.027156441
2.4804714 0.034840673 0.027626857
2.4812865 0.035160538 0.028155534
2.4821405 0.035387777 0.028741315
2.4830511 0.035426401 0.029437384
2.4840322 0.035278898 0.030238541
2.4850814 0.034943216 0.031154536
2.4859343 0.035172489 0.031739127
2.4866846 0.035679236 0.032156043
2.487406 0.036283784 0.032522604
2.4880264 0.037164629 0.032717846
2.4887156 0.037863228 0.033028744
2.4893377 0.038746238 0.033228032
2.489959 0.039629281 0.033426721
2.4905467 0.04060562 0.033567857
2.4908097 0.042520527 0.033160388
2.4911776 0.044435494 0.032774031
2.4913588 0.046350017 0.032353919
2.4915121 0.04826086 0.031910852
2.4917512 0.050363548 0.031401191
2.4192829 0.012442559 0.035819307
2.3682013 0.014668785 0.031972252
2.4925725 0.056195643 0.030168947
2.4930713 0.05729045 0.030173227
2.4937022 0.058179833 0.030372759
2.4943497 0.059041705 0.030619053
2.4950004 0.059837431 0.030865168
2.4956398 0.060641423 0.031096183
2.4962459 0.061597012 0.031271011
2.4968121 0.06259039 0.031387124
2.4973092 0.063759863 0.031402431
2.4977658 0.065104544 0.031331349
2.498184 0.066545986 0.031200072
2.418951 0.0029338002 0.02646012
2.414664 0.0015207939 0.028704491
2.4017115 -0.0021085404 0.030128287
2.3728502 0.018570878 0.03778943
2.4025331 -0.0025572777 0.029190652
2.3722069 0.017777581 0.037520729
2.3654397 0.013489991 0.040567912
2.3601551 0.011448346 0.028615478
2.3645358 0.012400076 0.03156814
2.3591809 0.011529624 0.02790824
2.3611224 0.011416145 0.029347479
2.362886 0.011765189 0.030530434
2.3653579 0.012717269 0.032086466
2.3692319 0.014974017 0.03433159
2.3721328 0.017293047 0.035858229
2.4111619 0.0053991005 0.035093516
2.360323 0.012668654 0.019715648
2.3665724 0.013819724 0.030959187
2.4102626 -0.0018341616 0.026364898
2.3597288 0.010786779 0.030220281
2.4112904 0.0042836554 0.033812128
2.3666265 0.014790267 0.02729971
2.4196355 0.0036298446 0.026775483
2.4201841 0.0035477951 -0.0077317301
2.4203489 0.0042438395 0.027133197
2.3601332 0.010414429 0.032330919
2.4210255 0.0049492754 0.027440608
2.3651235 0.012231484 0.035488378
2.3709998 0.016679611 0.038640819
2.3755386 0.024633981 0.039968036
2.3750675 0.018198889 0.03424608
2.435483 -0.018952742 0.011586642
2.4363203 -0.019025069 0.012341145
2.4372644 -0.019047221 0.013062472
2.438046 -0.018628987 0.013532013
2.4387975 -0.018121606 0.0139505
2.4394903 -0.017433628 0.014270939
2.4401786 -0.016749552 0.014586654
2.4408703 -0.016062228 0.014903308
2.4415593 -0.015377672 0.015219573
2.4422476 -0.014693636 0.015538402
2.4429383 -0.014007561 0.015854726
2.4436262 -0.013323516 0.016173957
2.4443467 -0.012727544 0.016537415
2.4523382 -0.0010740627 0.019081695
2.4530294 -0.0003900975 0.019398902
2.4542201 -0.0011205059 0.020532481
2.4548795 -0.00034534 0.02079905
2.4555378 0.00042894483 0.021063827
2.4561641 0.0012922585 0.021278942
2.45666 0.0025252067 0.021278558
2.4568245 0.0047168862 0.020705745
2.456795 0.0074749924 0.019804697
2.4574833 0.008173719 0.020115009
2.4580405 0.0092433449 0.020205121
2.4586935 0.010030784 0.02045881
2.4593492 0.010821002 0.020710472
2.4600015 0.011607829 0.020962995
2.4606905 0.012306189 0.021271959
2.4613123 0.013188533 0.021474792
2.4619343 0.014070634 0.021672478
2.4626524 0.014671421 0.022035435
2.4632742 0.015554225 0.022231182
2.4639301 0.016345009 0.02248803
2.4645839 0.017133465 0.022739913
2.4652412 0.017925434 0.022993064
2.4659278 0.018620726 0.023303924
2.4665797 0.019407012 0.023555886
2.467267 0.020102877 0.023867304
2.46789 0.020986659 0.024065867
2.4685779 0.021683004 0.024372909
2.4692647 0.02237873 0.024681501
2.469888 0.023262547 0.024884591
2.4705739 0.023957338 0.025191581
2.4712269 0.024744725 0.02544637
2.4718819 0.025534302 0.025700578
2.4725366 0.026323669 0.025954366
2.4731934 0.02711587 0.026206536
2.4738472 0.027904652 0.026461873
2.4745018 0.028693974 0.026712134
2.4751551 0.0294817 0.026969174
2.4757786 0.030366227 0.027166
2.4764309 0.031153105 0.027421445
2.4770856 0.0319423 0.027674006
2.477741 0.032732438 0.027929986
2.4784298 0.033429768 0.028238941
2.4790828 0.034217246 0.028488411
2.4798021 0.034818027 0.028853578
2.4806197 0.035138529 0.02938322
2.4814687 0.035365008 0.029966623
2.48245 0.035217457 0.030769888
2.483628 0.034505747 0.031905342
2.4847403 0.033984426 0.032928199
2.4855287 0.034401726 0.033402659
2.4862788 0.034908134 0.03382346
2.4869668 0.03560498 0.034131262
2.4876225 0.036395844 0.0343857
2.4882424 0.037275858 0.034585185
2.4889302 0.037972786 0.034892797
2.4895523 0.038857445 0.035091549
2.4901073 0.039926395 0.035181899
2.4905326 0.041370232 0.035049755
2.4907629 0.043382771 0.034586288
2.3673611 0.014231898 0.031430397
2.4073851 -0.0061701462 0.015335592
2.3997529 0.00034535676 0.033048261
2.4139006 0.0017950572 0.029734988
2.4125001 -0.0002633743 0.027598834
2.4017725 -0.0037324131 0.027265044
2.4530396 -0.00061439537 0.041448869
2.413543 0.0050421469 0.033588942
2.4124751 0.0005681403 0.029020272
2.4017446 -0.0029470213 0.028707508
2.4082344 -0.0059291273 0.015909553
2.3980069 -0.0078768097 0.010438818
2.495959 0.063121773 0.032299072
2.4965012 0.064197063 0.032376137
2.3989196 -0.0078315474 0.01112291
2.3997734 -0.0076646321 0.011704199
2.4006562 -0.0074839927 0.012334524
2.4024973 -0.0016863942 0.030592702
2.4014685 -0.0060015433 0.020961348
2.4014747 -0.0071940646 0.012860266
2.4208181 0.0078044087 0.031505886
2.3631856 0.013311759 0.04243841
2.3658776 0.012740217 0.035908509
2.3714526 0.016594183 0.035535026
2.3684425 0.014561497 0.033859443
2.4023278 -0.0069438182 0.013440812
2.3449154 0.052365441 -0.02472025
2.408747 0.0058102272 0.036523078
2.3637114 0.012083128 0.031050544
2.3661485 0.013131492 0.032555368
2.410455 0.0047579594 0.034723908
2.4101584 0.00073570013 0.03059784
2.375129 0.021828849 0.036910038
2.3974357 -0.005474329 0.022841033
2.3615127 0.013364375 0.023925064
2.4032054 -0.0067448989 0.014061494
2.404038 -0.0065072775 0.014598536
2.4049249 -0.0063212961 0.015220659
2.4174588 0.0012173876 -0.00712281
2.4182639 0.0016225539 -0.0066307313
2.4190714 0.0019555129 -0.0060864165
2.4197898 0.0022962317 -0.0055395234
2.4206657 0.0024950877 -0.0047455779
2.4057786 -0.0061106235 0.015799485
2.3912163 -0.0068661124 0.011816306
2.4154122 0.0012781471 0.027658828
2.3716779 0.017376628 0.038960826
2.3759253 0.026124489 0.039866485
2.4066322 -0.0059129223 0.016380072
2.4166622 0.0093798675 0.034716032
2.4074826 -0.005673863 0.016957141
2.4366965 -0.019322123 0.014410538
2.4375758 -0.019167569 0.015032616
2.4383292 -0.018658172 0.015454831
2.4390185 -0.017973103 0.015768331
2.4397068 -0.017289069 0.016089175
2.4403956 -0.016604424 0.016406456
2.4410861 -0.015918199 0.016724706
2.4417753 -0.015232552 0.017039578
2.4424341 -0.014458198 0.017304659
2.4431236 -0.01377208 0.017623501
2.4437802 -0.013000429 0.017887902
2.4445658 -0.012578592 0.018358715
2.4452214 -0.01180692 0.018627847
2.4498591 -0.0064781308 0.020542348
2.4505181 -0.0057036802 0.020808546
2.4512694 -0.0051951166 0.021226654
2.4518034 -0.0040651765 0.021290639
2.4524598 -0.0032928176 0.021560445
2.4530876 -0.0024292096 0.021770965
2.4537437 -0.0016577747 0.022041177
2.4544342 -0.00097099878 0.022357568
2.4550915 -0.00019700453 0.022623319
2.4556859 0.00075349025 0.022788087
2.4562163 0.0018840469 0.022853654
2.4564865 0.0037597939 0.02247536
2.4563584 0.0067980234 0.021412436
2.4570134 0.0075881425 0.021662582
2.4576039 0.0085664149 0.021810852
2.4582245 0.0094475374 0.02200773
2.4588778 0.010235617 0.022261787
2.4595339 0.011026081 0.022516092
2.4602194 0.011720179 0.022825619
2.4608426 0.012604509 0.023023231
2.4615288 0.01329916 0.023331812
2.4621503 0.014182066 0.02353139
2.4628067 0.014973209 0.023787774
2.4634943 0.015669465 0.024096116
2.4641485 0.016458549 0.024350578
2.4648037 0.017247939 0.024603862
2.4654906 0.017944306 0.024910107
2.4661129 0.018826365 0.025111811
2.4667976 0.019519882 0.025418263
2.467452 0.020309184 0.025673453
2.4681058 0.021097701 0.025925545
2.4687619 0.021888359 0.026183587
2.4694149 0.022676464 0.026435034
2.4700713 0.023467787 0.026688717
2.4707251 0.02425633 0.026943929
2.4714119 0.024951547 0.027253676
2.4720683 0.02574282 0.027506655
2.4727221 0.026531497 0.027759867
2.4733768 0.02732187 0.02801406
2.4739966 0.028201595 0.028211903
2.4746528 0.02899277 0.028467786
2.4753058 0.029779995 0.028723365
2.4759607 0.030570038 0.028974105
2.4766147 0.031358633 0.029227814
2.4772701 0.032149527 0.029481458
2.4779267 0.032939862 0.029734839
2.4786446 0.033540417 0.030101497
2.4793317 0.034235425 0.030407693
2.4800825 0.034742467 0.030826151
2.4809644 0.03487562 0.031464685
2.4819808 0.034632999 0.032324616
2.4837489 0.032239441 0.034448199
2.4844663 0.032839376 0.034812376
2.4851878 0.033442546 0.035177488
2.4858739 0.034138042 0.035482939
2.4865301 0.034929156 0.035737406
2.4871831 0.035716325 0.035994992
2.4878368 0.036505289 0.036248233
2.4884582 0.037387475 0.036446232
2.4890819 0.038273573 0.036643527
2.4896691 0.039249744 0.036790978
2.4901273 0.040599607 0.036712695
2.490422 0.04242301 0.036361963
2.4083052 -0.00537204 0.017487235
2.4091227 -0.0050565675 0.018016148
2.3448482 0.053371772 -0.03073754
2.3604355 0.013023056 0.021452654
2.4174571 0.0041327588 0.03005483
2.372894 0.01983032 0.040965296
2.3745275 0.022968139 0.041380823
2.3454852 0.052820221 -0.026289128
2.4032524 -0.0011987202 0.031028129
2.3897998 -0.0053890795 0.022179604
2.4017687 0.0032695755 0.035440128
2.4099422 -0.0047369339 0.018540166
2.4107528 -0.0043859743 0.01905581
2.4115186 -0.0039326213 0.019493561
2.3734612 0.0208105 0.041135833
2.3473246 0.053317893 -0.025249951
2.3946559 -0.0056268238 0.020809717
2.3654578 0.018673066 0.046194974
2.4123077 -0.0035253465 0.019966165
2.4130623 -0.0030218735 0.020387758
2.3450885 0.054514732 -0.034640398
2.4041312 -0.0025408044 0.028695803
2.4033473 -0.0029559806 0.028228495
2.3620219 0.011530474 0.029959075
2.3617556 0.01254116 0.017292734
2.3592756 0.011622019 0.015711004
2.4121366 0.0037792698 0.032894261
2.4202497 0.0060329251 0.029914144
2.3984306 -0.0033455752 0.028019466
2.3600559 0.010912351 0.039041542
2.3700435 0.015103936 0.027954344
2.4087512 -0.0013141111 0.02844812
2.3727736 0.018085029 0.036129914
2.3755922 0.023097914 0.036924247
2.4025166 0.0038228631 0.035811435
2.4138098 -0.0025034286 0.020802179
2.4146669 -0.0007599704 -0.0068234317
2.4154565 -0.00030893832 -0.0064336611
2.416301 -0.000137005 -0.005775902
2.4171364 0.00015821308 -0.0052545541
2.4179976 0.00042060763 -0.0046321917
2.4187849 0.00074046105 -0.0041169268
2.4195507 0.0010925718 -0.0035591968
2.420325 0.001536496 -0.0029679015
2.4145608 -0.0019889958 0.021221204
2.415309 -0.0014750138 0.021637073
2.4160395 -0.00089547038 0.022008145
2.408196 0.0040067062 0.034919303
2.4167559 -0.00028239191 0.022369877
2.4024911 -0.0046949349 0.02472505
2.417474 0.00031585246 0.022738703
2.4354429 -0.020282011 0.015442489
2.43629 -0.020039048 0.01601072
2.437139 -0.019795049 0.016582482
2.4378588 -0.019199021 0.016951775
2.4385483 -0.018513333 0.017267052
2.4392366 -0.017829027 0.017588729
2.4399252 -0.01714436 0.017907016
2.4406164 -0.016457211 0.018223552
2.4413059 -0.015770735 0.018539518
2.4419327 -0.014907457 0.018756839
2.4425907 -0.014133906 0.019020934
2.4432795 -0.013448259 0.019341135
2.4439681 -0.012763908 0.019656979
2.4446561 -0.012079816 0.019974409
2.4453776 -0.011482533 0.020342825
2.4460683 -0.010795666 0.020661743
2.4467568 -0.010110058 0.020979429
2.4474156 -0.0093360301 0.021245483
2.4481018 -0.0086537357 0.021560611
2.4487593 -0.0078783389 0.021832136
2.4494164 -0.007105235 0.022097996
2.4500744 -0.0063316841 0.022362193
2.4506698 -0.0053793062 0.022529865
2.4512968 -0.0045157075 0.022747021
2.4519546 -0.0037419479 0.023011643
2.452611 -0.0029695593 0.023279136
2.4533017 -0.0022821613 0.023594489
2.4539592 -0.0015084911 0.023865435
2.4546158 -0.00073525496 0.024129797
2.4552422 0.00012928247 0.024344942
2.4557722 0.0012605526 0.024410684
2.4560173 0.0031828452 0.024018703
2.4559882 0.0059350096 0.02312417
2.4565454 0.0070063677 0.023214567
2.4571352 0.0079832282 0.023356257
2.4577887 0.0087715574 0.023612551
2.4584095 0.0096528959 0.023809457
2.4590976 0.010349574 0.02412146
2.459753 0.011140393 0.024373187
2.4604073 0.011929842 0.024629496
2.4610267 0.01280963 0.024825435
2.4616826 0.013600044 0.02508305
2.462369 0.01429528 0.025390888
2.4629903 0.015177364 0.025590483
2.4636772 0.015872659 0.025898024
2.4643323 0.016662696 0.026154188
2.4649863 0.017451294 0.026409507
2.4656749 0.018149395 0.02671754
2.4663298 0.018938649 0.026973227
2.4669828 0.019726617 0.027226165
2.4676371 0.020515312 0.02748139
2.468293 0.021306152 0.027730906
2.4689794 0.022001941 0.028042015
2.4696004 0.022883203 0.028242933
2.4702876 0.023579106 0.028550936
2.4709101 0.024462465 0.028747547
2.4715974 0.025159121 0.029057238
2.4722183 0.026040325 0.029258752
2.4729047 0.026735172 0.029566048
2.4735608 0.027526733 0.029823275
2.4742131 0.028313138 0.030075252
2.4748375 0.029198816 0.030276017
2.4755237 0.029893877 0.030586246
2.4761794 0.030684127 0.030838415
2.4768655 0.031379856 0.031146908
2.4774857 0.032260127 0.031345211
2.4781101 0.033145383 0.031543925
2.4787936 0.033837847 0.031852182
2.4812813 0.029379658 0.035185769
2.482002 0.029983198 0.035546593
2.4827194 0.030583244 0.035909276
2.4834077 0.031279273 0.036221515
2.4840965 0.031977329 0.036528938
2.4847505 0.032766018 0.036782354
2.4854374 0.033461325 0.037090801
2.4860911 0.034249596 0.037348598
2.4867463 0.03504052 0.03759893
2.487366 0.035920821 0.037798338
2.4879882 0.036804322 0.037999891
2.4886425 0.037594594 0.038253769
2.4891989 0.038667578 0.038345747
2.4896555 0.040015463 0.038269877
2.4900484 0.041555353 0.038082171
2.418201 0.00090482458 0.023108751
2.4031694 -0.0054926649 0.022097385
2.3896017 -0.0068540052 0.01229698
2.4023206 -0.0057547688 0.021534195
2.3927138 -0.0061035715 0.01781041
2.4179182 0.0069780238 0.032950517
2.4218502 0.012407567 0.036021855
2.3446054 0.052624054 -0.026891114
2.4040282 -0.00072446093 0.031446926
2.3464122 0.053025398 -0.025792764
2.4189143 0.0015191473 0.023471022
2.4090283 0.0035326257 0.034010973
2.3711967 0.015901219 0.032064639
2.4196317 0.0021214038 0.023837756
2.3711078 0.015709341 0.030251363
2.3652825 0.019813579 0.047519188
2.4191048 0.013687249 0.037016369
2.3954871 -0.0059991442 0.01985129
2.4090552 -0.0056204498 0.016438656
2.3683972 0.015166279 0.028479842
2.4199636 0.0083264224 0.032403588
2.4222002 0.009976618 0.033581771
2.4109855 -0.0020658672 0.025265735
2.3987892 0.0011518858 0.033801559
2.4098988 -0.0053490512 0.01700313
2.3624296 0.011157513 0.032068733
2.3708382 0.020522363 0.046208285
2.3655095 0.014257662 0.024656581
2.360347 0.011801377 0.011158956
2.3722062 0.021230586 0.045303043
2.3640053 0.012962714 0.04138973
2.3669004 0.01363942 0.032975119
2.3700218 0.015389394 0.034799404
2.373384 0.018976148 0.036344953
2.3966057 -0.0020352565 0.029670179
2.3682399 0.015028812 0.026635282
2.4133461 -0.0017530881 -0.0057234121
2.4141288 -0.0012928173 -0.0051075239
2.4149771 -0.0010671802 -0.0045242999
2.4159181 -0.0010437407 -0.0039436333
2.4167445 -0.0007994473 -0.003248733
2.4176214 -0.00049385801 -0.0028276974
2.4184184 -0.00017726421 -0.0023019728
2.4191356 0.00035210699 -0.001773024
2.4199173 0.00076299161 -0.0012971223
2.4208012 0.00089805573 -0.00066218944
2.4217813 0.00074907392 0.00014490122
2.4016714 -0.0049988851 0.024195734
2.3615541 0.010562852 0.036763914
2.3906879 -0.0065549128 0.014720818
2.3998945 -0.0060268864 0.021475431
2.3706608 0.021672882 0.047528125
2.4350047 -0.020911019 0.016987771
2.435885 -0.020758003 0.017612401
2.4367023 -0.020425193 0.018130457
2.4374225 -0.019828551 0.018496901
2.4381104 -0.019144597 0.018816125
2.4388022 -0.018455738 0.019136656
2.4394588 -0.017682679 0.019402614
2.4401166 -0.016908623 0.01967068
2.4408038 -0.016224623 0.019988602
2.4414935 -0.015538426 0.020305136
2.442152 -0.014763275 0.020573923
2.4428074 -0.013990704 0.020838724
2.4434345 -0.013127038 0.021058299
2.4440916 -0.01235329 0.021324124
2.4447789 -0.011669433 0.021640021
2.445471 -0.01098161 0.021956922
2.4461908 -0.010384869 0.022326091
2.4468465 -0.0096124448 0.022594197
2.4475055 -0.0088370647 0.022861697
2.4481943 -0.008150924 0.023180541
2.4488204 -0.007288361 0.023397291
2.4494779 -0.0065138042 0.023661792
2.4501047 -0.0056505203 0.02387972
2.4507942 -0.0049646795 0.024195619
2.4514813 -0.0042812619 0.024514085
2.4521701 -0.0035958197 0.024834163
2.4528296 -0.0028198846 0.02510011
2.4535177 -0.0021350402 0.025418425
2.4541755 -0.0013599694 0.025684282
2.4547992 -0.00049961731 0.025902314
2.4553292 0.0006319955 0.025966488
2.4556358 0.0023829415 0.025678137
2.4555216 0.0053548589 0.024673609
2.4561093 0.00632824 0.024815146
2.4566989 0.0073058214 0.02496204
2.4573221 0.0081900191 0.025159534
2.4579747 0.0089773107 0.025413815
2.4586287 0.0097662043 0.025670368
2.4592519 0.010650959 0.025870236
2.4599061 0.011439554 0.026124546
2.460593 0.012135508 0.026432056
2.4612458 0.012922795 0.026685029
2.4618993 0.013710778 0.026941892
2.4625533 0.014499817 0.027197253
2.4632084 0.015289787 0.027449796
2.4638302 0.016172698 0.027650783
2.4645519 0.016777817 0.028012475
2.4651709 0.017656654 0.028213043
2.4658279 0.018448874 0.028467122
2.4665124 0.019141948 0.028774234
2.467169 0.019933704 0.029029578
2.4678235 0.020723056 0.029283565
2.4684777 0.021512028 0.029537011
2.46913 0.022298828 0.029794956
2.4697864 0.023089964 0.030046109
2.4704728 0.023785707 0.030358322
2.4711251 0.024572279 0.030612426
2.4717484 0.02545736 0.030808507
2.4724016 0.026244702 0.031066913
2.4730914 0.026943654 0.031375431
2.4737442 0.027731335 0.031629652
2.4744 0.028522188 0.031880975
2.4750531 0.029310916 0.032137919
2.4756727 0.030190863 0.032333668
2.4763272 0.030980084 0.032588053
2.4769816 0.031769324 0.032842323
2.4795361 0.02712591 0.036279496
2.4801898 0.027913725 0.036533125
2.4809101 0.028515849 0.036899433
2.4815984 0.029213585 0.037205517
2.4822855 0.029908866 0.037516475
2.4829714 0.030602787 0.037826486
2.4836915 0.031205291 0.038192842
2.4843445 0.031993251 0.038442459
2.4849694 0.032878868 0.038646039
2.4856863 0.033478707 0.039008897
2.4863098 0.034364875 0.039208412
2.4869313 0.035247505 0.039406955
2.4875498 0.036127832 0.039609291
2.4881718 0.037014373 0.039809041
2.4886634 0.038270839 0.039785486
2.4891527 0.039530836 0.03976582
2.4895117 0.041161586 0.039526142
2.37164 0.018832218 0.042029448
2.4216089 0.013794046 0.037160862
2.4223695 0.0079356097 0.030958969
2.4003072 -0.0068184957 0.016962728
2.3647895 0.01401104 0.024406938
2.374505 0.023819182 0.04286221
2.4973526 0.056329854 0.00045084977
2.4203427 0.011402518 0.03516962
2.3691733 0.015048005 0.027306452
2.3651073 0.020981923 0.048808217
2.4106901 -0.0049688779 0.017488183
2.3992863 -0.0031060763 0.028583802
2.3639188 0.011805847 0.038167458
2.3587761 0.012438774 0.020396128
2.3983934 -0.0047762692 0.025039254
2.3454151 0.05412532 -0.032400779
2.3461673 0.054584257 -0.032020733
2.3990438 -0.006198924 0.020890383
2.3932023 -0.0023402274 0.028941726
2.3924193 -0.002695512 0.028434321
2.404846 -0.0042090714 0.024669945
2.4025595 -0.0033510104 0.027749425
2.3740129 0.019844066 0.036591217
2.4149201 0.010526191 0.036475334
2.4120135 0.0048767403 0.034185831
2.4087033 -0.00041398406 0.029825799
2.4039891 -0.0051745176 0.022627078
2.3932791 -0.0039945431 0.026068533
2.4088874 0.0046749301 0.035265133
2.392839 -0.0057926886 0.019501621
2.394037 -0.0049821921 0.023539009
2.4006453 -0.0062431432 0.020422967
2.3676543 0.014148112 0.033392031
2.3707397 0.015993081 0.03516639
2.367346 0.013851851 0.036695749
2.4111152 -0.002632685 -0.0053487397
2.4120228 -0.0025361404 -0.0046179295
2.4128764 -0.0023139119 -0.004038366
2.4137523 -0.0021597482 -0.0033851936
2.4146411 -0.0020085014 -0.0028393632
2.4155529 -0.0019903816 -0.0021619871
2.4163373 -0.0015716515 -0.0015826744
2.4172292 -0.0013402887 -0.0010988205
2.4179749 -0.00092925504 -0.00052525243
2.418792 -0.00060836971 1.2330711e-06
2.4195769 -0.00019457191 0.00047568278
2.4203942 0.00012600422 0.0010030814
2.4212465 0.00035368279 0.0015878067
2.4220641 0.00067446008 0.0021149428
2.4115036 -0.0045215338 0.018044354
2.4063981 -0.0010535195 0.029973339
2.4070375 0.00052849576 0.031676058
2.3681145 0.017060746 0.043357499
2.4126692 0.0056568943 0.034463592
2.4354494 -0.021387838 0.019154077
2.436235 -0.020967795 0.01962561
2.4369574 -0.020369649 0.019995218
2.4376767 -0.019773548 0.020362914
2.4383667 -0.019086409 0.020678243
2.4390237 -0.01831276 0.020947678
2.4397111 -0.017628597 0.021268131
2.4403696 -0.01685282 0.021535872
2.4410276 -0.016077427 0.021799453
2.441684 -0.015304122 0.022066342
2.4423409 -0.014530279 0.022335798
2.4429965 -0.013757974 0.022605697
2.4436533 -0.012983568 0.02286998
2.444313 -0.012206841 0.023138829
2.4450016 -0.011521112 0.023455016
2.4456265 -0.010659467 0.023672376
2.4463153 -0.0099735558 0.023990598
2.4469709 -0.0092009474 0.024259018
2.4476304 -0.008424161 0.024528574
2.448287 -0.0076510441 0.024797251
2.4489763 -0.0069652554 0.025113447
2.4496632 -0.0062815435 0.025429025
2.45032 -0.0055075362 0.025696386
2.45101 -0.0048208963 0.026018698
2.4517303 -0.0042240899 0.026383448
2.4523888 -0.0034484994 0.026651474
2.4530463 -0.002673639 0.026918523
2.4537024 -0.0019012056 0.027189538
2.4543593 -0.0011266209 0.027455354
2.4549527 -0.00017099641 0.02762166
2.4552574 0.0015755109 0.027336476
2.4551508 0.0044902693 0.026381264
2.4555767 0.005932929 0.026251709
2.4562309 0.0067227073 0.026509564
2.4568534 0.0076070838 0.02670718
2.4574747 0.0084885303 0.02690872
2.4581609 0.0091837235 0.027218262
2.4587831 0.01006747 0.027417019
2.4594362 0.010854663 0.02767008
2.4600899 0.011643454 0.027925722
2.4607465 0.012435509 0.028181793
2.4613986 0.013222044 0.028432677
2.4620879 0.013920913 0.028742297
2.4627082 0.014801186 0.028942909
2.4633958 0.01549823 0.029252842
2.4640503 0.016287629 0.02950573
2.4647038 0.017075561 0.029763691
2.4653575 0.01786441 0.030014006
2.4660132 0.018654861 0.030268913
2.4666653 0.019441705 0.030523144
2.4673536 0.020139348 0.030832432
2.4679742 0.021020673 0.031036172
2.4686296 0.021810791 0.031289738
2.4693148 0.022504721 0.031598244
2.4699695 0.023294145 0.031849824
2.4706264 0.024086099 0.032106191
2.471312 0.024780462 0.032414943
2.471966 0.025569826 0.032671746
2.4726193 0.026358025 0.032925714
2.4732411 0.027240774 0.033123169
2.4738944 0.028028931 0.033376731
2.4745159 0.028911876 0.033576418
2.4769754 0.024550201 0.036845941
2.4777582 0.024962565 0.037322208
2.478447 0.025660524 0.03762811
2.4791353 0.026356505 0.037940949
2.4798536 0.026958548 0.038301725
2.4805079 0.027746607 0.038559001
2.4811952 0.028442733 0.038868833
2.4818799 0.029136103 0.039176077
2.4825366 0.029928094 0.039430838
2.483191 0.030716889 0.039687183
2.4838772 0.031412363 0.039996453
2.4845297 0.032199759 0.040249228
2.485184 0.032990862 0.040506721
2.4858046 0.033872485 0.040704761
2.4863937 0.034849402 0.040849373
2.4869828 0.035828795 0.040995754
2.4875374 0.036896922 0.041085415
2.4880617 0.038063429 0.041118249
2.4885187 0.039411992 0.041042946
2.4887803 0.041326493 0.040639162
2.4150858 0.0051888935 0.033002742
2.4072111 -0.0029836334 0.026090354
2.3897648 -0.0065842792 0.014036899
2.3570478 0.011988766 0.019235626
2.3609316 0.012222424 0.016767411
2.3733261 0.023293074 0.045602426
2.3692551 0.015364584 0.02905646
2.3465359 0.054052006 -0.029634045
2.3582938 0.010568783 0.037861459
2.4048877 -0.0035638586 0.026196867
2.3734207 0.019554809 0.037961558
2.4116223 0.0074508153 0.036535487
2.4122345 -0.0040757805 0.018387875
2.3960781 -0.0065275431 0.017067844
2.3686752 0.015124686 0.030454056
2.3678186 0.014822017 0.029885635
2.362499 0.011947699 0.040547807
2.40014 -0.0071097016 0.015225498
2.4160457 0.0084970407 0.034503281
2.3671381 0.018534303 0.045724358
2.3592055 0.012080781 0.04156993
2.4130175 -0.0036570244 0.018858168
2.4010475 0.0027040541 0.03502968
2.3698347 0.015185714 0.03298429
2.3746021 0.02001138 0.035202503
2.3750939 0.022599742 0.038421988
2.3715954 0.020343781 0.045073982
2.3906767 -0.0053152405 0.02281698
2.4024236 -0.0052763484 0.02315658
2.4095314 -0.0016318969 0.027443914
2.3902905 -0.0069312342 0.011134591
2.39641 -0.0059691556 0.020532761
2.4137716 -0.0031547695 0.019277524
2.4107227 0.0025093667 0.03218922
2.3736775 0.016220327 0.032027256
2.3565881 0.010852359 0.038272049
2.4097755 -0.003357444 -0.0043221945
2.4107006 -0.0033424385 -0.0036439346
2.4116449 -0.0033838116 -0.0028897692
2.4125576 -0.0033342354 -0.0022900873
2.4133883 -0.0030266605 -0.0017692831
2.4143431 -0.0030874424 -0.0010234807
2.4151626 -0.0027589574 -0.00049057556
2.4158988 -0.0022486039 2.5107525e-05
2.416785 -0.0021145046 0.00066586677
2.4176004 -0.0017947778 0.0011922843
2.4183888 -0.0013782121 0.0016653985
2.4192059 -0.0010586493 0.0021964107
2.4199886 -0.00064504519 0.002666682
2.4207757 -0.0002296567 0.003141386
2.4215593 0.00018289313 0.0036173682
2.4223454 0.00059747696 0.0040929951
2.4231296 0.0010119453 0.0045632352
2.3608859 0.011906572 0.041116029
2.3656828 0.016674072 0.04343579
2.3472788 0.054748416 -0.029358273
2.4350185 -0.022017855 0.020698939
2.4357715 -0.021509415 0.021119043
2.4364932 -0.02091161 0.021488918
2.4372127 -0.020314982 0.021856468
2.4379027 -0.019627955 0.022174701
2.4385576 -0.018856026 0.022443056
2.4392459 -0.018170409 0.022757627
2.4399023 -0.017396525 0.023025174
2.4405906 -0.016711343 0.023346636
2.4412501 -0.015933964 0.023615854
2.4418736 -0.015072996 0.023833446
2.4425619 -0.014387729 0.024150696
2.4432194 -0.013612811 0.024418451
2.4439087 -0.012925735 0.024734678
2.4445329 -0.012064217 0.024952123
2.4452207 -0.01137954 0.02527263
2.4458802 -0.010601893 0.025540063
2.4465353 -0.0098297521 0.025808543
2.4471941 -0.0090533532 0.026073234
2.44788 -0.0083706118 0.026392033
2.4485049 -0.0075080879 0.0266125
2.4492278 -0.0069078356 0.026978809
2.4498835 -0.0061354097 0.0272447
2.4505727 -0.0054488834 0.027564792
2.4512293 -0.0046751108 0.027831426
2.4519196 -0.003988225 0.028153466
2.4526069 -0.0033033658 0.028469967
2.4532645 -0.0025286674 0.028735792
2.4539523 -0.0018435847 0.02905312
2.4546087 -0.0010698643 0.029323567
2.4551687 -3.0422583e-05 0.029438175
2.4548366 0.0034947135 0.028145904
2.455111 0.0053518433 0.027800543
2.4557967 0.0060479045 0.02811048
2.4563506 0.0071140435 0.028201044
2.4569743 0.0079991315 0.02839773
2.4576595 0.0086931139 0.028709557
2.4583142 0.0094828773 0.028962381
2.4589694 0.010273317 0.029217387
2.4596238 0.011062706 0.029473085
2.4602785 0.011852609 0.029726733
2.460932 0.012640815 0.029982811
2.4615867 0.013430131 0.030237298
2.4622734 0.014125945 0.030548109
2.4629278 0.014916269 0.030803004
2.4635475 0.015795842 0.031001732
2.4642034 0.01658633 0.031256538
2.4648898 0.017282028 0.031567037
2.4655428 0.018070046 0.031821292
2.4661968 0.018859047 0.03207504
2.4668536 0.019651169 0.032329816
2.4675069 0.02043915 0.032585271
2.4681597 0.021226611 0.032837857
2.4688132 0.022015333 0.033094399
2.469501 0.02271181 0.033400651
2.470155 0.023500562 0.033654574
2.4707754 0.024382632 0.033853974
2.4714649 0.025081106 0.034164451
2.4720838 0.025961047 0.034363318
2.4745452 0.021600561 0.037631363
2.475265 0.022202551 0.037995242
2.4759841 0.022805138 0.038358189
2.4766366 0.023591733 0.038611289
2.4773903 0.024101444 0.039034441
2.478044 0.024889687 0.039287914
2.4787292 0.025583392 0.039598301
2.4793851 0.026374074 0.039850619
2.4801028 0.026974665 0.040216271
2.4807255 0.027858362 0.040414523
2.4814138 0.028556516 0.040724672
2.4820328 0.029436182 0.040925324
2.4827213 0.030134248 0.041235361
2.4833748 0.030922195 0.041487999
2.4839954 0.031805761 0.041689657
2.4845843 0.032781936 0.041833892
2.4852052 0.033664197 0.042033404
2.4857593 0.034734108 0.042125162
2.4863153 0.035804808 0.042214993
2.4868703 0.036877707 0.042305548
2.4873605 0.038135957 0.042285301
2.4877191 0.039768606 0.042047031
2.4142814 0.0096736401 0.036216725
2.3443327 0.052810829 -0.029003907
2.4128487 0.0043938383 0.033251841
2.3690333 0.015794497 0.040880397
2.3888454 -0.006600529 0.013351932
2.3631315 0.011392318 0.037696511
2.3932781 -0.0032315776 0.027537255
2.4094989 -0.00078712776 0.0288566
2.3924565 -0.0043144152 0.025548218
2.3457298 0.053633172 -0.03011466
2.398257 -0.0058950111 0.021893758
2.3754234 0.016539957 0.03324338
2.3585482 0.012520134 0.025455628
2.3742359 0.019142248 0.035054028
2.358156 0.011420615 0.013167433
2.3957515 -0.0045299754 0.024687702
2.3677936 0.019938063 0.047607813
2.3685079 0.020537566 0.047978885
2.3475931 0.055999897 -0.031353872
2.4145286 -0.0026583895 0.019701488
2.4124517 0.0070028119 0.035602435
2.4116867 0.00092459843 0.030004509
2.3660045 0.015152965 0.042301159
2.3595293 0.012413494 0.026191585
2.3705902 0.015686579 0.033407524
2.3751066 0.021113776 0.035209678
2.4056993 0.0046413206 0.036251422
2.364254 0.016148131 0.044251103
2.4032416 -0.0049453117 0.023678578
2.4195809 0.005322706 0.029616971
2.3686581 0.019472539 0.046617966
2.3718815 0.023441035 0.047992118
2.363337 0.012746751 0.016652578
2.3611784 0.012944952 0.02029087
2.3608828 0.011214875 0.039564263
2.4066007 0.0039728396 0.035454661
2.4083927 -0.0040027127 -0.0034726064
2.4094191 -0.0043026693 -0.0026436558
2.4103911 -0.0044009052 -0.0018163074
2.4112661 -0.0042305775 -0.0012670383
2.4121819 -0.0041929185 -0.00057052635
2.4130909 -0.0041094348 4.0738378e-05
2.4139504 -0.0038585775 0.0006451942
2.4147089 -0.0034335777 0.0012142654
2.4155257 -0.0031141713 0.0017447276
2.4163787 -0.0028853305 0.0023262161
2.4171624 -0.0024721101 0.0028005182
2.4179506 -0.002057258 0.003276973
2.4188023 -0.0018281713 0.0038574524
2.4195874 -0.0014132708 0.0043294765
2.4203377 -0.00090746209 0.0047499938
2.4211564 -0.00058601424 0.0052775196
2.4219077 -7.8622252e-05 0.0056966119
2.4226596 0.00042838231 0.0061182771
2.4234776 0.00074985996 0.0066436962
2.424264 0.0011650138 0.0071167266
2.3975363 -0.0042518601 0.025933793
2.4345231 -0.02247213 0.022136608
2.435338 -0.022142943 0.022659421
2.4360607 -0.021544274 0.02302607
2.4367816 -0.020946044 0.023396296
2.437438 -0.020172887 0.023665782
